ply
format ascii 1.0
comment Created by CloudCompare v2.11.3 (Anoia)
comment Created 7/2/25 9:09 PM
obj_info Generated by CloudCompare!
element vertex 1479
property float x
property float y
property float z
end_header
-0.0647565 0.00207428 0.0480632 
-0.0583983 0.000706977 0.0452759 
-0.0583981 -0.000684282 0.04434 
-0.0586863 0.00143614 0.045849 
-0.0593935 0.00110107 0.0458271 
-0.0593981 0.00373484 0.0475976 
-0.0620077 0.00256082 0.0475623 
-0.0647836 -0.00271367 0.0448873 
-0.0651446 -0.0026452 0.0450444 
-0.0639808 -0.00497142 0.0431371 
-0.0639431 -0.00427181 0.0435917 
-0.0659651 -0.00366455 0.0446198 
-0.0665037 -0.00508309 0.0438496 
-0.0670221 -0.0055055 0.0437318 
-0.0647397 -0.000263213 0.0465002 
-0.0666301 0.000650312 0.0476932 
-0.0668827 -0.00207317 0.0459629 
-0.067771 -0.00214781 0.0461937 
-0.0681692 -0.00304053 0.0457275 
-0.0634222 -0.00573278 0.0424575 
-0.0624941 -0.00775479 0.0408239 
-0.0623794 -0.00733712 0.0410669 
-0.061596 -0.00780469 0.0405165 
-0.0606023 -0.010415 0.0384702 
-0.0590051 -0.0101419 0.0381684 
-0.0598341 -0.00830492 0.0396454 
-0.0652319 -0.00771904 0.0416986 
-0.0633889 -0.00808073 0.0408832 
-0.0636844 -0.0101844 0.0395767 
-0.0623426 -0.0109541 0.0386466 
-0.0488324 -0.000459995 0.0419624 
-0.0491127 -0.000832775 0.0417755 
-0.0479594 0.000463711 0.0423805 
-0.0489108 0.000654707 0.0427473 
-0.0451653 0.00141556 0.0423521 
-0.0467788 0.00204585 0.0431751 
-0.0442097 0.00181026 0.0423919 
-0.0438329 0.00166219 0.042199 
-0.0466091 -0.00451341 0.0386301 
-0.0453608 -0.0043396 0.0384428 
-0.0460672 -0.00232115 0.0400021 
-0.0476152 -0.00230238 0.0403967 
-0.0438425 -0.00204897 0.0396508 
-0.0437444 -0.000389137 0.0407678 
-0.0437005 -0.00119756 0.0402017 
-0.049882 0.00231492 0.0441257 
-0.0486088 0.00404273 0.044994 
-0.0508304 0.00365056 0.0452778 
-0.050798 0.00349652 0.0451641 
-0.0516377 0.00535408 0.0466475 
-0.0505315 0.00893712 0.0488251 
-0.0463279 0.0033534 0.0439643 
-0.0476768 0.00466945 0.0451956 
-0.0473939 0.00628379 0.0462362 
-0.0482735 0.00773549 0.0474468 
-0.0478214 0.00687758 0.0467481 
-0.0483535 0.0081578 0.0477564 
-0.0540405 0.00402649 0.0463566 
-0.0527511 0.00351131 0.0456719 
-0.0527485 0.00144584 0.0442608 
-0.0544877 0.00248318 0.0454185 
-0.0566898 0.00141808 0.045288 
-0.0557964 0.00273548 0.0459386 
-0.0565805 0.0011612 0.0450841 
-0.0576486 0.00131934 0.0454799 
-0.0533446 0.00596329 0.0474981 
-0.05529 0.00568317 0.0478125 
-0.0572401 0.00521115 0.0480091 
-0.0577095 0.00586653 0.0485807 
-0.0558728 0.00329833 0.0463408 
-0.0576462 0.00402865 0.0473191 
-0.0514626 -0.000335711 0.0427108 
-0.0515371 -0.000777715 0.0424276 
-0.0515677 -0.00318192 0.0407916 
-0.0502063 -0.000920089 0.0419902 
-0.0517857 -0.0037443 0.0404622 
-0.0483398 -0.00423604 0.0392475 
-0.0550149 -0.00121123 0.0430474 
-0.0552456 -0.0032592 0.0417162 
-0.0530086 -0.00367742 0.0408328 
-0.0537326 -0.0029081 0.0415489 
-0.0532768 -0.00564822 0.0395619 
-0.0525626 -0.00386123 0.0405885 
-0.0517407 -0.00569321 0.0391228 
-0.0523132 -0.00449279 0.0400915 
-0.0339421 0.00388088 0.0414814 
-0.0356576 0.00410671 0.0420022 
-0.0344198 0.00676718 0.0435941 
-0.0335236 0.00489248 0.0420978 
-0.0329564 0.00531319 0.042286 
-0.0320284 0.00514577 0.0419924 
-0.0329249 0.00709427 0.0435333 
-0.0316751 0.0075801 0.0436389 
-0.0339109 0.00100567 0.0394713 
-0.0350297 0.00101252 0.0397135 
-0.0323817 0.000363151 0.0386993 
-0.0323619 0.00167407 0.0396134 
-0.0317967 0.00100692 0.0390368 
-0.0300398 0.00260004 0.0398239 
-0.0300418 0.0029757 0.0400887 
-0.0366637 0.00796556 0.0449043 
-0.0354409 0.00748186 0.0443084 
-0.0366302 0.0101507 0.0464198 
-0.0370878 0.0097468 0.0462351 
-0.0375142 0.00696703 0.0443883 
-0.0367468 0.0114326 0.0473379 
-0.0371063 0.0109142 0.0470525 
-0.0392515 0.0115247 0.047931 
-0.0384578 0.0111378 0.047494 
-0.0322299 0.0102769 0.0456424 
-0.0328469 0.00820872 0.0443031 
-0.0338684 0.00903779 0.0450796 
-0.0346235 0.010178 0.0460244 
-0.0330368 0.0125279 0.0473792 
-0.0319799 0.0119177 0.04675 
-0.0340098 0.0130223 0.0479109 
-0.0349908 0.0135254 0.0484496 
-0.0379427 0.00695268 0.044469 
-0.0406378 0.00847712 0.0461385 
-0.0406285 0.00621737 0.0445743 
-0.0384987 0.00629452 0.0441411 
-0.0432024 0.00839565 0.0466786 
-0.0420304 0.00651461 0.0451052 
-0.0436055 0.00436345 0.044002 
-0.0446913 0.00666649 0.0458458 
-0.0410271 0.0118734 0.048575 
-0.0406526 0.011247 0.0480564 
-0.0409434 0.0092975 0.0467753 
-0.0445269 0.00967508 0.0478755 
-0.0437466 0.0116447 0.0490423 
-0.0441311 0.00926392 0.047498 
-0.0465664 0.010283 0.0487817 
-0.0398276 0.0028363 0.0420543 
-0.0391992 0.00520302 0.0435467 
-0.0372515 0.00368112 0.0420498 
-0.0379066 0.00263346 0.0414753 
-0.0383136 0.000992183 0.0404337 
-0.0372914 0.00192755 0.0408468 
-0.0365149 0.000599633 0.0397515 
-0.038239 -0.00129835 0.0388334 
-0.0429549 0.000613801 0.0412669 
-0.0417189 0.00481955 0.0438651 
-0.0419891 0.000727558 0.0411149 
-0.0410188 0.00310474 0.0425186 
-0.0414133 -0.00127823 0.0395974 
-0.0403837 0.00095917 0.0408916 
-0.0403067 -0.00128701 0.0393278 
-0.0206276 0.00755066 0.0419757 
-0.0218689 0.00874657 0.0429776 
-0.0197866 0.00833017 0.0424424 
-0.0188763 0.0103978 0.0438274 
-0.0212639 0.00983749 0.0436949 
-0.0153254 0.00787678 0.0416874 
-0.0179279 0.00779152 0.0418535 
-0.0147911 0.00876091 0.042278 
-0.0165985 0.00975343 0.0431549 
-0.0192706 0.00351967 0.0389189 
-0.0202869 0.00325391 0.0388409 
-0.0194828 0.00625057 0.0409097 
-0.020929 0.00623901 0.0410641 
-0.0155994 0.00364506 0.0386536 
-0.0160942 0.00585921 0.0402971 
-0.0159013 0.00538945 0.0399413 
-0.0190604 0.0111514 0.0443908 
-0.0196042 0.0129489 0.0457463 
-0.0201579 0.0140362 0.0465924 
-0.0196131 0.0143166 0.0467322 
-0.0212499 0.0147928 0.047262 
-0.0195953 0.0145929 0.046929 
-0.0237845 0.0161708 0.0485454 
-0.0225989 0.0153383 0.0478092 
-0.0171142 0.0120956 0.0448907 
-0.0153247 0.0114377 0.0442567 
-0.0148627 0.0119699 0.0445995 
-0.0158746 0.0148836 0.0467929 
-0.0185766 0.0110499 0.0442668 
-0.0182106 0.0127499 0.0454626 
-0.01681 0.0155801 0.0473801 
-0.016591 0.0160562 0.0477037 
-0.0181265 0.0172197 0.0486844 
-0.0190296 0.0156511 0.0476339 
-0.0237585 0.0127228 0.0460706 
-0.0249852 0.0124433 0.0460389 
-0.0262601 0.0108942 0.0451039 
-0.0265432 0.00969333 0.0442821 
-0.0295705 0.0112953 0.0459046 
-0.0292601 0.0123717 0.0466202 
-0.0282638 0.00946538 0.0443917 
-0.0302617 0.0101495 0.0452016 
-0.0243342 0.0159691 0.0484759 
-0.0252677 0.0152754 0.0481072 
-0.0262766 0.0134025 0.0469037 
-0.0248068 0.0140081 0.0471357 
-0.0293968 0.0152973 0.0487233 
-0.0281682 0.0152713 0.0485065 
-0.0300236 0.0134097 0.0474817 
-0.0295856 0.0127438 0.0469374 
-0.0240516 0.00827693 0.0429248 
-0.0239029 0.00959951 0.0438523 
-0.0237766 0.00930444 0.0436235 
-0.0237416 0.00734041 0.0422112 
-0.0234192 0.00625617 0.04139 
-0.0246364 0.00622649 0.0415357 
-0.0230504 0.00514939 0.0405462 
-0.0242209 0.00422458 0.040044 
-0.0233411 0.00281024 0.0389097 
-0.0233901 0.00345893 0.0393813 
-0.0299717 0.00717392 0.0430391 
-0.0292771 0.00843602 0.0438239 
-0.0268845 0.00855333 0.0435198 
-0.0267396 0.00546751 0.0413013 
-0.0287284 0.00198149 0.039146 
-0.0283918 0.00380045 0.0403844 
-0.0257158 0.00190335 0.0386001 
-0.0278155 0.00227603 0.0392071 
0.100533 -0.0838605 0.0327677 
0.101939 -0.0839346 0.0324432 
0.102894 -0.0847582 0.0312099 
0.0996497 -0.0801267 0.035394 
0.0975063 -0.0796962 0.0344476 
0.0996365 -0.0822428 0.0348956 
0.0959214 -0.0742917 0.0354395 
0.0984799 -0.0768481 0.0359295 
0.0943945 -0.0718125 0.03511 
0.0965515 -0.0725588 0.0363058 
0.0941353 -0.0617244 0.0347825 
0.0936945 -0.063205 0.0345938 
0.0928743 -0.0670117 0.0342991 
0.0948429 -0.0672245 0.0356853 
0.0933641 -0.0532452 0.035614 
0.0927013 -0.0575239 0.0343965 
0.0920448 -0.0580496 0.0338465 
0.0934974 -0.0590609 0.0346508 
0.0914485 -0.046661 0.0366051 
0.0920367 -0.0480475 0.0364449 
0.0923257 -0.0494495 0.0361514 
0.0917349 -0.0498261 0.0356563 
0.0934584 -0.0486612 0.0368246 
0.0933981 -0.0498091 0.0364624 
0.0927753 -0.036933 0.0421862 
0.0934898 -0.0350951 0.0432244 
0.0919605 -0.0371826 0.0417245 
0.0905024 -0.0362955 0.0416259 
0.0910062 -0.0373418 0.041203 
0.0926782 -0.0400746 0.040398 
0.0930456 -0.0395834 0.0407788 
0.0933943 -0.0409945 0.0400868 
0.0832572 -0.015175 0.0513217 
0.0814995 -0.0138908 0.0514255 
0.079813 -0.0112116 0.0520972 
0.0839588 -0.0147307 0.0514881 
0.0820383 -0.0125465 0.0520143 
0.0796065 -0.00976586 0.0525264 
0.0806608 -0.0148135 0.0506156 
0.0832989 -0.0175595 0.0501677 
0.0790919 -0.0167316 0.0488294 
0.0801274 -0.0178274 0.0486492 
0.0800973 -0.0181641 0.0484393 
0.0777098 -0.0107274 0.0515949 
0.0806354 -0.0140416 0.0510273 
0.0782703 -0.012774 0.0507261 
0.0767562 -0.0125506 0.0501663 
0.0785931 -0.0153974 0.0493715 
0.0788868 -0.0147758 0.049861 
0.0857751 -0.0210308 0.0491864 
0.085482 -0.0218645 0.0485943 
0.0872979 -0.0231708 0.0485311 
0.0824894 -0.0201308 0.0483376 
0.0835502 -0.0217318 0.0478446 
0.0836594 -0.0225857 0.0473843 
0.0854558 -0.024689 0.0468737 
0.0856821 -0.0242397 0.0472431 
0.0860684 -0.0202106 0.0497406 
0.0867105 -0.0197409 0.050119 
0.0881196 -0.0221123 0.049308 
0.0891362 -0.0225914 0.0491249 
0.0907604 -0.0293115 0.0461359 
0.088511 -0.0293019 0.0452745 
0.0887499 -0.0305001 0.0446067 
0.0879842 -0.0260648 0.0470854 
0.0880484 -0.0273054 0.0463445 
0.0881736 -0.0281092 0.0458928 
0.091007 -0.0311622 0.0450752 
0.091478 -0.0343588 0.0432582 
0.0917749 -0.03214 0.0447506 
0.0896657 -0.0307931 0.0447954 
0.0902927 -0.0347095 0.0425376 
0.0909378 -0.0335128 0.0435794 
0.0919289 -0.0292934 0.0463088 
0.0922288 -0.0332455 0.0442031 
0.0708318 -0.0017987 0.0531337 
0.0696575 -0.00106836 0.0530443 
0.0657071 0.00243257 0.0531842 
0.065777 0.00167208 0.0529023 
0.0683642 0.00106258 0.0533309 
0.0691085 -0.00225852 0.052307 
0.0702942 -0.00358191 0.0521273 
0.0682778 -0.00407358 0.0509527 
0.0693468 -0.00645328 0.0501134 
0.0668697 -0.00443358 0.0500919 
0.0656973 0.00105033 0.052607 
0.0666673 -0.00048043 0.0521994 
0.0634737 0.000327063 0.0512595 
0.063239 -8.8485e-05 0.0509145 
0.0655035 -0.00283498 0.0503691 
0.072407 -0.00614273 0.0517088 
0.0736193 -0.00704183 0.0517686 
0.0758897 -0.00978633 0.0513077 
0.0763922 -0.00864547 0.0521244 
0.0718975 -0.00924863 0.0497516 
0.0720135 -0.00772757 0.0506572 
0.0723814 -0.00787514 0.0507481 
0.0751383 -0.0118764 0.0497942 
0.0755174 -0.0102645 0.0508779 
0.0748403 -0.00634313 0.052612 
0.0731617 -0.00395157 0.053027 
0.0779042 -0.00981893 0.0521393 
0.0764829 -0.00716699 0.052783 
0.0776411 -0.00808118 0.0527537 
0.0759298 -0.00565567 0.0530632 
0.050786 0.0119158 0.0531508 
0.0537437 0.0108956 0.0533185 
0.0535022 0.00919454 0.0525498 
0.0541022 0.00906478 0.0526841 
0.0565929 0.00665068 0.0521486 
0.054168 0.00665557 0.051281 
0.0552768 0.00609857 0.05135 
0.0549566 0.00424032 0.0500684 
0.0489711 0.0104593 0.0518347 
0.0520394 0.00874367 0.0518028 
0.0520017 0.0081751 0.0514396 
0.0520711 0.00749878 0.0510298 
0.049508 0.00750364 0.0501376 
0.0575622 0.00549167 0.0518462 
0.0605983 0.00441016 0.0523746 
0.0615202 0.00299378 0.0519617 
0.063547 0.00263836 0.0525769 
0.0575806 0.00252365 0.0500693 
0.0562181 0.00398993 0.0504082 
0.0592393 0.00228745 0.0505967 
0.0611944 -0.000168514 0.0499846 
0.0632394 0.000810853 0.0514416 
0.061258 0.00151797 0.0510068 
0.0611857 0.00625081 0.0533069 
0.0593194 0.00810194 0.0533912 
0.062663 0.00400242 0.0529019 
0.063332 0.00416793 0.0531703 
0.0406744 0.016629 0.0531645 
0.0345186 0.0189464 0.0531731 
0.0332844 0.0188777 0.0529353 
0.0412181 0.0177104 0.0534947 
0.033344 0.0204722 0.0534995 
0.0365679 0.016362 0.052096 
0.0395347 0.0148464 0.0518737 
0.0372211 0.0140027 0.0506865 
0.0362646 0.0148167 0.050986 
0.0364092 0.0135926 0.0501873 
0.0375894 0.0130643 0.0501463 
0.0319507 0.019064 0.052797 
0.0347658 0.0172811 0.0522685 
0.0324619 0.0168073 0.0514291 
0.0342113 0.015934 0.0512416 
0.0340133 0.0153505 0.0507889 
0.0351275 0.0149853 0.0508045 
0.0431547 0.0134687 0.051986 
0.0408154 0.0143975 0.0519226 
0.0434858 0.0136982 0.0522201 
0.0452003 0.0131784 0.0523716 
0.046924 0.0121845 0.0522785 
0.0428242 0.0108708 0.050171 
0.0410311 0.0123217 0.0506113 
0.042195 0.0126642 0.051187 
0.0414136 0.0136033 0.0515851 
0.0468499 0.00857907 0.0499325 
0.0466766 0.00951888 0.0504951 
0.0475461 0.0098396 0.0509852 
0.0432268 0.0152858 0.0530468 
0.0428841 0.015815 0.0532255 
0.0420647 0.0165087 0.0533636 
0.0488439 0.0131456 0.0532605 
0.0227048 0.0221293 0.0530866 
0.0204542 0.0224444 0.0530168 
0.0166341 0.0240037 0.0533506 
0.0214665 0.0212946 0.0524646 
0.022088 0.0208318 0.0522376 
0.0211414 0.0199662 0.0515215 
0.0211185 0.0192096 0.0509721 
0.0218036 0.0177874 0.0500476 
0.0168903 0.0222686 0.0525547 
0.0172893 0.0209034 0.0516774 
0.0165921 0.0202996 0.0511635 
0.0164172 0.0192252 0.0503649 
0.0162973 0.0195105 0.0505576 
0.0227898 0.0202931 0.0519732 
0.0259315 0.0206849 0.0527419 
0.0283487 0.0189919 0.0520513 
0.0308452 0.0189719 0.0525158 
0.0244018 0.0178123 0.0505032 
0.0228706 0.0183904 0.0506475 
0.0254652 0.0174829 0.0504544 
0.0259646 0.0190434 0.051654 
0.0270566 0.0182051 0.0512537 
0.0279249 0.0162166 0.050028 
0.028516 0.0182367 0.051578 
0.0300816 0.0161492 0.0504297 
0.0272732 0.0212117 0.053183 
0.0237761 0.022081 0.053189 
0.0269472 0.0219591 0.053425 
0.0256006 0.0227832 0.0534966 
0.0304026 0.0200567 0.0530621 
0.0273409 0.0206893 0.0529342 
0.0297159 0.0210045 0.0534054 
0.0312256 0.021397 0.0535379 
0.0041671 0.0245322 0.0530555 
0.000286735 0.0237616 0.0525892 
0.00350765 0.0235213 0.0524885 
0.0057722 0.0226897 0.0520097 
0.0048968 0.0214513 0.0511134 
0.00506235 0.0214786 0.0511394 
0.006926 0.0211301 0.050957 
0.00286905 0.0236744 0.0525749 
0.00295993 0.0222968 0.0516496 
-0.000173448 0.0212141 0.0508233 
0.00207053 0.0212921 0.0509172 
0.00109134 0.0197985 0.0498207 
0.00906705 0.0218533 0.0516113 
0.0101557 0.0224403 0.0520707 
0.0124572 0.0222544 0.0521226 
0.0128121 0.022315 0.0521926 
0.00750327 0.0196714 0.0499343 
0.00956115 0.0210517 0.0510625 
0.0139501 0.0189868 0.0499214 
0.011778 0.0210125 0.0512008 
0.0138918 0.0209397 0.0513338 
0.00860015 0.0238083 0.0528483 
0.00754869 0.0245228 0.0531615 
0.00887196 0.0246335 0.0532614 
0.0115241 0.0233633 0.0527707 
-0.0079328 0.0241705 0.052769 
-0.00293896 0.0247438 0.0530498 
-0.012023 0.0234029 0.0524719 
-0.0154331 0.022648 0.0522291 
-0.00899233 0.0243439 0.0528657 
-0.0143319 0.0245298 0.0528356 
-0.014186 0.0240823 0.0527646 
-0.0110444 0.0220603 0.0516181 
-0.00815944 0.0230483 0.0521696 
-0.0100901 0.0205825 0.0505434 
-0.0110877 0.0207924 0.0507392 
-0.00861434 0.0204996 0.0504196 
-0.0149652 0.0213159 0.0513443 
-0.0136077 0.0211126 0.0511239 
-0.01458 0.0194877 0.0500193 
-0.0137291 0.0195221 0.0499864 
-0.00539611 0.0220283 0.0514304 
-0.00699777 0.0233033 0.0523155 
-0.00071811 0.0226989 0.0518633 
-0.00707401 0.0195674 0.0496944 
-0.00747374 0.0203771 0.0502881 
-0.00587559 0.0215041 0.0510699 
-0.00330524 0.0201535 0.0500548 
-0.00298286 0.0215503 0.0510646 
-0.019957 -0.00249563 0.034485 
-0.0186966 -0.00168489 0.0350098 
-0.0134596 -0.00169236 0.0344255 
-0.0169261 -0.00240697 0.034106 
-0.0150849 -0.00236954 0.0338882 
-0.0160186 -0.00223787 0.0341758 
-0.0202568 -0.00145022 0.0353994 
-0.0195147 -0.000172257 0.0362709 
-0.0179698 0.00211702 0.0377628 
-0.0211369 0.00123846 0.0374828 
-0.0151695 -0.000597594 0.0355062 
-0.0161082 0.000820558 0.0366542 
-0.0145167 0.00238161 0.0376476 
-0.0147616 0.00281747 0.037983 
-0.0155831 0.00255518 0.0378635 
-0.0210242 -0.00103618 0.0358044 
-0.0235256 -0.000942241 0.0362304 
-0.0260608 -0.00100137 0.0365892 
-0.026982 -0.00203125 0.0359846 
-0.0239917 0.00187985 0.0383322 
-0.0232442 0.00164167 0.038059 
-0.0242603 0.00148626 0.0380869 
-0.0220304 0.000335526 0.0369567 
-0.0250458 0.000279515 0.0373362 
-0.0284145 -6.1003e-05 0.037643 
-0.0269504 -0.000101646 0.0373755 
-0.0221061 -0.00234834 0.0349398 
-0.02336 -0.00324149 0.0343869 
-0.0231906 -0.00342482 0.0341718 
-0.0249444 -0.00258668 0.0352218 
-0.0267228 -0.0039451 0.0344245 
-0.0241383 -0.00352832 0.0342706 
-0.0325038 -0.0051114 0.034785 
-0.0278042 -0.00425838 0.0343845 
-0.0335162 -0.0062759 0.0340046 
-0.0332981 -0.00465876 0.0353477 
-0.0332955 -0.00317635 0.0364197 
-0.0321207 -0.000736084 0.0378781 
-0.0338504 -0.00249696 0.0370189 
-0.0340304 -0.00103134 0.038078 
-0.0283151 -0.00233212 0.0360018 
-0.0310405 -0.00294362 0.0360945 
-0.0290076 0.000432046 0.0381025 
-0.0312211 -0.000981527 0.037529 
-0.0367389 -0.00426136 0.0364356 
-0.0356659 -0.00516538 0.0355317 
-0.0384471 -0.00459722 0.036608 
-0.0404659 -0.00583693 0.0362205 
-0.0363855 -0.0014354 0.0383153 
-0.0368202 -0.00157782 0.0383161 
-0.0357422 -0.00326332 0.0369048 
-0.0383225 -0.00299459 0.0376813 
-0.0391572 -0.00300918 0.0378698 
-0.0400378 -0.0039553 0.0374281 
-0.0343865 -0.00586949 0.0346465 
-0.0347986 -0.00690255 0.0337751 
-0.0377668 -0.00740849 0.0343169 
-0.0431817 -0.00861265 0.0348744 
-0.0425995 -0.00985162 0.0335046 
-0.0423006 -0.00946259 0.0338197 
-0.0445677 -0.0073387 0.0361745 
-0.0457918 -0.00717985 0.0365966 
-0.0451535 -0.00530608 0.0377276 
-0.0467904 -0.00607162 0.0376031 
-0.0417619 -0.00674636 0.0358928 
-0.0419557 -0.00608433 0.0364147 
-0.0409819 -0.00507553 0.0368815 
-0.0429612 -0.00522671 0.0372515 
-0.0481158 -0.00841106 0.0363272 
-0.0510118 -0.0106755 0.0355019 
-0.0469681 -0.00696527 0.0370326 
-0.0486252 -0.00605535 0.038075 
-0.049705 -0.00747594 0.0373749 
-0.0512129 -0.008238 0.0372509 
-0.0500247 -0.00898099 0.0364296 
-0.0459776 -0.0100829 0.0344982 
-0.0506914 -0.0123688 0.0341045 
-0.0494544 -0.0116635 0.0342828 
-0.0486563 -0.0122407 0.0333717 
-0.0556988 -0.0146253 0.0340145 
-0.0530641 -0.0124874 0.0347977 
-0.0529797 -0.0139204 0.0335096 
-0.0540374 -0.0124637 0.0351106 
-0.0557017 -0.0125494 0.0355555 
-0.056465 -0.0112509 0.0366721 
-0.0572013 -0.0120778 0.0363317 
-0.0516915 -0.0116322 0.0350151 
-0.0530618 -0.0093992 0.0369543 
-0.0553895 -0.00957625 0.0374859 
-0.0549649 -0.00878765 0.0379007 
-0.0576413 -0.0131855 0.035712 
-0.058227 -0.0144014 0.0350524 
-0.0596204 -0.0147103 0.0352813 
-0.0592337 -0.0155168 0.0345987 
-0.058387 -0.0117031 0.0369393 
-0.0592428 -0.0130151 0.0363206 
-0.0624548 -0.0134756 0.037003 
-0.0580713 -0.0152945 0.0343467 
-0.0573979 -0.0154209 0.0340023 
-0.0571992 -0.0159387 0.0334466 
-0.0559662 -0.0153601 0.0334346 
-0.0599102 -0.016223 0.0342989 
-0.0586677 -0.0158829 0.0341037 
-0.0612989 -0.0175705 0.0337626 
-0.0613021 -0.0175082 0.0338127 
-0.0640554 -0.0195842 0.0331482 
-0.0642279 -0.0174833 0.034855 
-0.0654319 -0.0183532 0.0346349 
-0.0661443 -0.0171109 0.0357188 
-0.0669922 -0.0158987 0.0367924 
-0.0617839 -0.0162041 0.0349464 
-0.0627687 -0.0160047 0.0354051 
-0.0634258 -0.0153324 0.0360682 
-0.0648223 -0.0148767 0.0368088 
-0.068907 -0.0191886 0.0351187 
-0.0697278 -0.0199296 0.0348177 
-0.0676818 -0.0166042 0.0365289 
-0.0689734 -0.0176158 0.0362161 
-0.0715114 -0.0180684 0.0366088 
-0.0708028 -0.019865 0.0351637 
-0.0664685 -0.0196339 0.0340459 
-0.066646 -0.0202764 0.0335951 
-0.066669 -0.0213396 0.0325796 
-0.0684678 -0.0208529 0.0337652 
-0.069943 -0.0223961 0.0329807 
-0.0734128 -0.0232288 0.0332853 
-0.0736517 -0.0222627 0.0341111 
-0.0762099 -0.0228668 0.034206 
-0.075097 -0.0209729 0.0353889 
-0.0723234 -0.0222388 0.0338042 
-0.0732855 -0.0196848 0.0359134 
-0.0746928 -0.0206366 0.035554 
-0.0770413 -0.0231067 0.0341878 
-0.0812123 -0.0248796 0.0335986 
-0.0802949 -0.0249184 0.0333951 
-0.078542 -0.023364 0.0342792 
-0.0815479 -0.0234475 0.0347573 
-0.0768416 -0.0245844 0.032974 
-0.0762735 -0.0248995 0.0325604 
-0.0761862 -0.0254675 0.0319282 
-0.0846831 -0.0283679 0.0314072 
-0.0839049 -0.0285944 0.0309646 
-0.0843016 -0.027325 0.0322205 
-0.0854318 -0.0269715 0.0327203 
-0.085297 -0.0263139 0.0332076 
-0.0820648 -0.0263386 0.0325943 
-0.0824342 -0.0236288 0.0347749 
-0.0877616 -0.0284862 0.0319379 
-0.0871419 -0.0267603 0.0331935 
-0.0884144 -0.0280884 0.0323795 
-0.0860335 -0.0291581 0.0310026 
-0.088076 -0.0298853 0.0308211 
-0.0919481 -0.0315721 0.0302183 
-0.0900937 -0.0311679 0.0301334 
-0.0903906 -0.0315133 0.0298553 
-0.0930457 -0.0311717 0.0307781 
-0.0919675 -0.0302775 0.0312967 
-0.0904412 -0.0304488 0.030853 
-0.0949665 -0.031699 0.0307141 
-0.0934684 -0.0332189 0.0289692 
-0.0950461 -0.0336912 0.0290026 
-0.0977047 -0.0350145 0.0283474 
-0.0990858 -0.0333066 0.0300996 
-0.0980034 -0.0330172 0.0301716 
-0.106864 -0.034408 0.0264637 
0.104939 -0.0929214 0.0274125 
0.101781 -0.0866613 0.0288226 
0.0995094 -0.08648 0.0278961 
0.102418 -0.0890823 0.0276897 
0.10285 -0.0879478 0.0285712 
0.104091 -0.0906416 0.0279667 
0.0986841 -0.0845452 0.0310368 
0.0998757 -0.0842097 0.0318304 
0.0986998 -0.0841534 0.032367 
0.097729 -0.0848308 0.0303501 
0.0969692 -0.0851837 0.0294211 
0.09625 -0.0849043 0.0305628 
0.0947297 -0.0853184 0.0296459 
0.0969042 -0.083838 0.032607 
0.0950088 -0.0844312 0.031164 
0.0939841 -0.0846205 0.0304284 
0.0950741 -0.0851117 0.0302949 
0.0983021 -0.0840985 0.032765 
0.0957309 -0.0818837 0.032509 
0.095686 -0.0804934 0.0329779 
0.0965184 -0.0795449 0.0338653 
0.0936057 -0.0821988 0.0310154 
0.0925952 -0.0824865 0.0302563 
0.0933353 -0.0808673 0.0313217 
0.0952634 -0.0831186 0.0317758 
0.0942598 -0.0840946 0.0307869 
0.0954128 -0.0839892 0.0315784 
0.0961362 -0.0824035 0.0325927 
0.0936773 -0.0758346 0.0334398 
0.0928702 -0.0762509 0.0327661 
0.0950736 -0.0756006 0.0344294 
0.0913867 -0.0763352 0.0317742 
0.0911948 -0.0767037 0.0315165 
0.0909658 -0.0774823 0.0310864 
0.0918563 -0.0749618 0.0325385 
0.0959531 -0.0768047 0.0345508 
0.0961279 -0.0789752 0.0338277 
0.0914446 -0.0688854 0.0332835 
0.0924341 -0.0683075 0.0340413 
0.0878806 -0.0701035 0.0305685 
0.0911495 -0.0733605 0.0325139 
0.0887916 -0.0734792 0.0308608 
0.0891092 -0.0736661 0.0310469 
0.0933044 -0.0713281 0.0344343 
0.0903126 -0.0656937 0.0321462 
0.0903676 -0.0640119 0.0320831 
0.0897394 -0.0656259 0.0316925 
0.0894646 -0.06593 0.0314986 
0.087739 -0.0655754 0.030122 
0.0880411 -0.0637209 0.0303176 
0.088474 -0.0678912 0.0309091 
0.0895246 -0.0673258 0.0316843 
0.0905298 -0.0665487 0.0324015 
0.0897372 -0.0574472 0.0323312 
0.0899662 -0.053394 0.0334369 
0.0890212 -0.0544751 0.032518 
0.0879839 -0.0572238 0.0311608 
0.086783 -0.0566094 0.0304575 
0.0860709 -0.0567725 0.0299276 
0.0876284 -0.0558243 0.0312258 
0.0870093 -0.0561409 0.0307232 
0.0887217 -0.0615045 0.0309717 
0.0865393 -0.0590975 0.0297662 
0.0871494 -0.0603528 0.0299901 
0.0896863 -0.0624773 0.0315746 
0.0905146 -0.0612568 0.0323043 
0.0914858 -0.060016 0.0331403 
0.0897948 -0.0473978 0.0352844 
0.0871908 -0.0480977 0.0333882 
0.0852217 -0.0503015 0.0312896 
0.0867874 -0.0471332 0.0335923 
0.0867431 -0.051476 0.0318497 
0.0878042 -0.0503205 0.0329305 
0.0853969 -0.0533309 0.030382 
0.0861081 -0.0543414 0.0305638 
0.0893131 -0.0495998 0.0341549 
0.0898926 -0.0508099 0.0341253 
0.0884603 -0.0529919 0.0325311 
0.0901287 -0.051173 0.0341761 
0.0886534 -0.0397878 0.0386122 
0.0872684 -0.040596 0.0374744 
0.0877431 -0.0384471 0.0390451 
0.0901139 -0.0395388 0.039455 
0.0894515 -0.0393013 0.0392818 
0.0893846 -0.0389799 0.0394435 
0.0897107 -0.0367229 0.0410018 
0.0834198 -0.0434847 0.0339196 
0.084181 -0.0416872 0.0354193 
0.0856235 -0.0461499 0.0334235 
0.0858374 -0.0469698 0.0331099 
0.0848359 -0.0460822 0.0330309 
0.0883228 -0.0436636 0.0361916 
0.0771459 -0.0239717 0.0437413 
0.0774126 -0.0240911 0.0437894 
0.0767283 -0.0199109 0.0459317 
0.0765921 -0.0221301 0.0445744 
0.0753477 -0.0204626 0.0449958 
0.0748941 -0.0213745 0.0442673 
0.0742397 -0.0211236 0.0441143 
0.0726353 -0.0185256 0.0448775 
0.0741323 -0.020819 0.0442402 
0.0801157 -0.0214068 0.0465544 
0.0804449 -0.0207985 0.0470555 
0.0774349 -0.0191696 0.0466762 
0.0788146 -0.0183894 0.0477392 
0.0769727 -0.0189431 0.0466043 
0.0770452 -0.0174179 0.0475109 
0.0750709 -0.0174267 0.0466105 
0.0755623 -0.0136957 0.0489694 
0.0737915 -0.023225 0.0427052 
0.0739234 -0.0243173 0.0421244 
0.0753728 -0.0271684 0.0410877 
0.074862 -0.0270411 0.0409385 
0.072812 -0.0265699 0.0403166 
0.0715191 -0.0265751 0.0397485 
0.0704581 -0.0284541 0.0381824 
0.07229 -0.0220299 0.0427129 
0.0732948 -0.0222892 0.0430189 
0.0723714 -0.0225481 0.0424526 
0.0736479 -0.0231075 0.0427086 
0.0719036 -0.0228398 0.0420735 
0.0709347 -0.0247766 0.0405232 
0.068722 -0.0245093 0.0396775 
0.0696907 -0.0260061 0.0392553 
0.0690213 -0.0254837 0.0392535 
0.0762254 -0.0283614 0.0407326 
0.0764781 -0.0269759 0.0416717 
0.0777198 -0.0274298 0.0419297 
0.0774991 -0.0259595 0.0427176 
0.0780173 -0.0297492 0.0406591 
0.0794611 -0.0308189 0.0405957 
0.0790122 -0.0322931 0.0394984 
0.0744648 -0.0321159 0.0377227 
0.0740015 -0.0319699 0.0376159 
0.076305 -0.0310526 0.0391477 
0.0750698 -0.0310036 0.0386504 
0.0763267 -0.0341349 0.0372451 
0.0760268 -0.0336285 0.0374376 
0.0771931 -0.0328817 0.0383801 
0.0776108 -0.032179 0.0389898 
0.0787386 -0.0261647 0.0431267 
0.0785665 -0.0236294 0.0445671 
0.0777288 -0.0251628 0.043294 
0.0809682 -0.0244337 0.045119 
0.0811338 -0.0238771 0.0455234 
0.0826534 -0.0224757 0.0470155 
0.0827837 -0.0225577 0.047023 
0.0799775 -0.028877 0.0420098 
0.0822181 -0.0272075 0.043972 
0.081714 -0.0278901 0.0433443 
0.0849059 -0.0268917 0.0452992 
0.0826894 -0.0247592 0.0456645 
0.0843285 -0.025608 0.04584 
0.0854967 -0.0322986 0.0421221 
0.0835031 -0.0326782 0.0410779 
0.0837976 -0.0292652 0.0433571 
0.0832126 -0.0322339 0.041242 
0.0832086 -0.0290584 0.0432474 
0.0881497 -0.0311985 0.0439117 
0.0860089 -0.0316605 0.0427414 
0.0859942 -0.026752 0.0458367 
0.0860467 -0.0294621 0.0441587 
0.0849837 -0.0281426 0.0445484 
0.0814527 -0.0348833 0.0388335 
0.0818134 -0.0356878 0.0384499 
0.0811293 -0.0365669 0.0376008 
0.0791364 -0.0381508 0.0357729 
0.0812612 -0.0311476 0.0411396 
0.0808783 -0.0328803 0.0398889 
0.0826005 -0.0332357 0.0403575 
0.077983 -0.0343504 0.0377876 
0.0778419 -0.0354444 0.0370315 
0.0834476 -0.036871 0.038312 
0.0844308 -0.0365328 0.0389302 
0.0835165 -0.0389798 0.0369393 
0.0853811 -0.0394974 0.0373562 
0.081143 -0.0381639 0.0365468 
0.0819058 -0.0381661 0.0368428 
0.081962 -0.0418429 0.0343886 
0.0856047 -0.0354472 0.0401233 
0.085956 -0.0342556 0.0410426 
0.0881412 -0.0342458 0.0419387 
0.0887834 -0.0321156 0.0435816 
0.0870587 -0.0382066 0.038907 
0.0874008 -0.035889 0.0405623 
0.0878392 -0.0361363 0.0405843 
0.0882857 -0.0351584 0.0414057 
0.066318 -0.01115 0.0460565 
0.0655212 -0.0089989 0.0468928 
0.0636112 -0.00999231 0.0454398 
0.0637985 -0.00940912 0.0458555 
0.0619135 -0.00587653 0.0469966 
0.0620244 -0.00726805 0.0462519 
0.0638304 -0.00712424 0.0471558 
0.0612218 -0.00876005 0.0450337 
0.0592954 -0.00796868 0.0446055 
0.0609151 -0.00823913 0.0451914 
0.0684033 -0.00722981 0.0492358 
0.0674673 -0.00648929 0.0492149 
0.0666406 -0.0085411 0.0476742 
0.0661628 -0.00585036 0.0489646 
0.0634473 -0.00272177 0.0495004 
0.0642634 -0.00576491 0.04813 
0.063019 -0.0037079 0.0487418 
0.062908 -0.00390023 0.0485811 
0.060492 -0.0130791 0.0422411 
0.0623982 -0.0118036 0.0438524 
0.0624291 -0.0116735 0.04394 
0.0633152 -0.015469 0.0422237 
0.0624515 -0.016109 0.0414593 
0.060156 -0.0138491 0.0416507 
0.05971 -0.0140244 0.041343 
0.059878 -0.0141583 0.0413466 
0.061202 -0.0157217 0.0410901 
0.0616659 -0.0173605 0.040388 
0.0602145 -0.0185256 0.0390528 
0.0598299 -0.00875455 0.0444005 
0.0602578 -0.0103187 0.0437016 
0.0576987 -0.0101617 0.0426214 
0.0570836 -0.0109011 0.0419173 
0.0583368 -0.0113503 0.0422347 
0.0610773 -0.0105447 0.0439473 
0.0561856 -0.0127353 0.0404592 
0.0581503 -0.0137739 0.0407668 
0.0554321 -0.0139879 0.0393985 
0.0563434 -0.0141115 0.039746 
0.0648076 -0.0175732 0.0417511 
0.0653959 -0.017241 0.0422146 
0.0659227 -0.018001 0.0420387 
0.0659554 -0.0170837 0.0425669 
0.0669084 -0.0150014 0.0441807 
0.0671168 -0.0187976 0.042155 
0.0677726 -0.0204036 0.0415576 
0.0689171 -0.0185401 0.0431402 
0.0695748 -0.0220283 0.0414849 
0.062933 -0.0190478 0.0400415 
0.0620946 -0.0189349 0.0397084 
0.0640244 -0.0210237 0.0394528 
0.0655501 -0.0192958 0.0411389 
0.0670565 -0.0247737 0.0387643 
0.0667524 -0.0237373 0.0392056 
0.0683993 -0.0235333 0.0400892 
0.0674027 -0.0212505 0.0409085 
0.0667241 -0.0220695 0.0401307 
0.068844 -0.0141982 0.0455432 
0.0698528 -0.0138787 0.046198 
0.0666328 -0.0118459 0.0458148 
0.0689005 -0.0124714 0.0465353 
0.0700728 -0.0125247 0.0470588 
0.0697877 -0.0101271 0.0482648 
0.0705801 -0.0119954 0.0475941 
0.0695311 -0.00867364 0.0489568 
0.0713204 -0.00950201 0.0493376 
0.0733488 -0.0161786 0.0465387 
0.0703168 -0.0163075 0.04505 
0.0710106 -0.0151474 0.0460264 
0.0702256 -0.0159402 0.0452139 
0.0719314 -0.0137607 0.0472364 
0.0722835 -0.0139233 0.0473094 
0.0728998 -0.0107491 0.0493822 
0.0723428 -0.0120021 0.0484174 
0.051617 -6.36089e-05 0.0461194 
0.0521488 -0.000934941 0.0457777 
0.0524995 -0.000447993 0.0462141 
0.0500807 0.000479986 0.0458741 
0.0498402 -0.000394044 0.0452365 
0.0496227 0.00200544 0.046653 
0.046929 0.00363208 0.0467483 
0.0462759 0.00162287 0.0452286 
0.0460768 0.00334186 0.0462604 
0.0529342 0.00338427 0.0487713 
0.0531412 0.00216525 0.0480884 
0.0527973 0.00268783 0.0482847 
0.0530559 0.00215507 0.0480498 
0.0514176 0.00563046 0.0496039 
0.0509433 0.00476536 0.0488837 
0.047452 0.0046067 0.0475566 
0.0484739 0.00516487 0.0482753 
0.0477512 -0.00358857 0.0424438 
0.04776 -0.00234445 0.0432239 
0.0495425 -0.00416543 0.0427707 
0.0483582 -0.00499225 0.0418035 
0.0458332 -0.00621162 0.040074 
0.0464928 -0.00455106 0.0413624 
0.0465872 -0.00788205 0.0393257 
0.0474683 -0.00890042 0.0390341 
0.0466148 -0.00107407 0.0436192 
0.0445152 -0.000263009 0.0433945 
0.0445046 -0.000462819 0.0432626 
0.0451256 -0.0025578 0.0421423 
0.0449816 -0.00280472 0.0419336 
0.0433019 -0.00280241 0.0413366 
0.0441014 -0.00429323 0.0406679 
0.0451015 -0.00687429 0.0393811 
0.04338 -0.00552121 0.0396253 
0.0513852 -0.00368833 0.0437774 
0.0519018 -0.0053141 0.0430061 
0.0517308 -0.00422303 0.043596 
0.0541425 -0.00596782 0.0435266 
0.0536377 -0.00438591 0.0442766 
0.0553585 -0.00937639 0.0420441 
0.0543919 -0.00779612 0.0425504 
0.0572106 -0.00945648 0.0428017 
0.0561975 -0.00804466 0.0431909 
0.0498156 -0.00735171 0.040916 
0.0489615 -0.00966665 0.0391647 
0.0511227 -0.00832356 0.0408665 
0.0513255 -0.0112537 0.0391823 
0.0529178 -0.00961294 0.0408407 
0.0531136 -0.0130688 0.0389 
0.0543233 -0.00985886 0.0413093 
0.0543547 -0.0107906 0.0407773 
0.0548298 -0.0022446 0.0460572 
0.05642 -0.00215338 0.0467613 
0.052874 -0.00205522 0.0453752 
0.0549899 -0.000997168 0.0468799 
0.0586233 0.00105523 0.0495998 
0.0582946 0.00105974 0.049469 
0.0550305 0.00257989 0.0490685 
0.0551775 0.00332447 0.049581 
0.0564103 0.00128052 0.0488382 
0.0585835 -0.00507679 0.0459667 
0.0573425 -0.00650407 0.0445913 
0.0578269 -0.00642069 0.0448502 
0.0568613 -0.00364462 0.0460635 
0.0563729 -0.00352154 0.0459245 
0.0586281 -0.00257882 0.0474565 
0.0592384 -0.00289754 0.0475327 
0.0616823 -0.00124665 0.0495589 
0.0586657 -8.97746e-05 0.0489393 
0.034536 0.00994684 0.0471856 
0.0360878 0.00831082 0.0464952 
0.0353272 0.00929197 0.0469557 
0.0350274 0.00674673 0.0451361 
0.0354609 0.00653576 0.0451122 
0.0327282 0.00887887 0.0459907 
0.0314449 0.0108088 0.0470139 
0.0325897 0.00881715 0.0459141 
0.0313111 0.00750127 0.0446851 
0.0298562 0.0080418 0.0446992 
0.0299754 0.0109706 0.0467646 
0.0381007 0.011111 0.0489532 
0.0381449 0.0122208 0.0497216 
0.0351363 0.0134948 0.0497759 
0.0344796 0.0112261 0.0480441 
0.0319032 0.0141322 0.0494355 
0.0323911 0.0140037 0.0494641 
0.0312453 0.0118949 0.0477187 
0.0306436 0.0129917 0.0483344 
0.0336243 0.00602104 0.0442513 
0.0340006 0.00498795 0.0436499 
0.0328376 0.00433953 0.0428845 
0.0346991 0.00256327 0.0421933 
0.0351829 0.00165426 0.0417117 
0.0337891 0.00313285 0.0423255 
0.0333453 0.00162074 0.0411735 
0.0320274 -0.000182585 0.0395732 
0.0332857 -0.00154823 0.039003 
0.0350447 -0.00108809 0.0398122 
0.0323589 0.00646127 0.0442227 
0.0297398 0.00756277 0.0443373 
0.0297233 0.00675289 0.0437703 
0.0321613 0.00460941 0.0428932 
0.0302042 0.00397172 0.0419616 
0.0326547 0.00489182 0.043212 
0.0286299 0.00135823 0.039752 
0.0291788 0.00257819 0.0407376 
0.0298631 0.000216589 0.0392777 
0.03061 0.000497167 0.0396615 
0.0373837 0.00275576 0.0431021 
0.0366511 0.00242149 0.0426536 
0.0383017 0.000521302 0.0418884 
0.0386877 0.00234066 0.0432223 
0.0390479 0.00159572 0.0428341 
0.038882 0.00127253 0.0425683 
0.0413907 -0.000694869 0.0420714 
0.041077 0.00147914 0.0433922 
0.0437769 -0.000759901 0.0428148 
0.0417717 0.00226582 0.0441363 
0.0419472 0.00258946 0.0444054 
0.0357057 -0.00159703 0.0396766 
0.035621 -0.000291875 0.0405224 
0.0375033 -5.69378e-05 0.0412577 
0.0378059 -0.00293465 0.0394337 
0.0373121 -0.00176016 0.0400651 
0.0402802 -0.00270525 0.04039 
0.0407026 -0.00360653 0.0399418 
0.0421647 -0.0041622 0.0400624 
0.0422575 -0.0027705 0.041001 
0.0415302 0.00459704 0.0455866 
0.0400994 0.00376143 0.0445968 
0.0404948 0.00756195 0.0472579 
0.0383488 0.00632393 0.0457815 
0.0404105 0.00775071 0.0473592 
0.0413365 0.00769366 0.0475983 
0.0412421 0.00815683 0.0478797 
0.0393585 0.00950973 0.0482223 
0.0435849 0.0100527 0.049848 
0.0390016 0.00983207 0.0483324 
0.0453713 0.00338649 0.0460476 
0.0433333 0.00210387 0.0445418 
0.0421557 0.00589729 0.0466454 
0.0436269 0.00559047 0.0469235 
0.0426407 0.0063789 0.0471204 
0.0476308 0.00792589 0.0497555 
0.0453237 0.00560099 0.0474834 
0.043753 0.00804639 0.0485781 
0.0439364 0.00822654 0.0487561 
0.0213515 0.0110197 0.0451113 
0.0214764 0.0104789 0.0447406 
0.0184221 0.0114952 0.0450173 
0.0186801 0.0122671 0.045613 
0.0183583 0.0131838 0.0462265 
0.0170456 0.0145563 0.0470561 
0.017472 0.013322 0.0462123 
0.0146705 0.0123514 0.0451803 
0.0166206 0.0118879 0.0450745 
0.0215358 0.0148782 0.0479153 
0.0214716 0.0153904 0.0482746 
0.0217267 0.0141789 0.0474392 
0.0209329 0.0149173 0.0478555 
0.0179097 0.0159277 0.0481498 
0.0156366 0.0175294 0.0490473 
0.0159175 0.0171458 0.0488019 
0.0164459 0.0162034 0.0481801 
0.0179894 0.00920716 0.0433012 
0.0197855 0.0103856 0.0444206 
0.0203458 0.00975703 0.0440508 
0.0212516 0.00876432 0.0434731 
0.0204995 0.00766622 0.0425694 
0.0209553 0.00831679 0.0431063 
0.0193157 0.00575013 0.04101 
0.0196602 0.0060478 0.0412774 
0.019658 0.00493307 0.0404728 
0.0196878 0.00326712 0.0392805 
0.0146367 0.0110013 0.0441973 
0.0144022 0.00782255 0.0418646 
0.0175795 0.00938271 0.0433728 
0.0169151 0.00925869 0.0432037 
0.0152218 0.00622919 0.0408077 
0.0172511 0.00655448 0.0412865 
0.0152113 0.00370785 0.0389799 
0.0174253 0.004966 0.0401581 
0.023193 0.00574424 0.0416691 
0.0243194 0.00529754 0.0415596 
0.0241586 0.00802036 0.0434705 
0.0240039 0.00766992 0.0431929 
0.0249616 0.0063065 0.0423982 
0.0267454 0.00658667 0.0429881 
0.0287457 0.00619129 0.0431399 
0.0283702 0.00594161 0.042884 
0.0273556 0.0080587 0.0441538 
0.023457 0.00230428 0.0392693 
0.0229025 0.00276027 0.0394896 
0.02374 0.00314384 0.0399202 
0.023069 0.00360766 0.0401256 
0.0273625 0.000928527 0.0391447 
0.0254864 0.00449889 0.0412397 
0.0265182 0.00301923 0.0404271 
0.0242241 0.00993832 0.0448479 
0.0249146 0.0102616 0.0452034 
0.0250648 0.00941978 0.0446313 
0.0238001 0.0121012 0.0463127 
0.0234193 0.0118712 0.0460799 
0.0245838 0.0151337 0.048618 
0.0228891 0.0139642 0.047483 
0.0246505 0.0165781 0.0496631 
0.0226992 0.0148581 0.0480877 
0.0274203 0.00898322 0.0448171 
0.0291921 0.00981176 0.045779 
0.0265322 0.0100702 0.0453914 
0.0277944 0.0115351 0.0466945 
0.0302618 0.0132833 0.0484475 
0.0299379 0.0129028 0.0481117 
0.0276303 0.0144378 0.0487079 
0.0286354 0.0158203 0.0498958 
0.00524676 0.015139 0.0465541 
0.00631568 0.0143847 0.046047 
0.00578905 0.0126766 0.0447905 
0.00406575 0.0133021 0.0451806 
0.00256518 0.0144493 0.0459769 
0.00193505 0.0146563 0.0461161 
0.000204787 0.0130271 0.0449091 
0.000799433 0.0140982 0.0456936 
0.00430968 0.0194822 0.049665 
0.00433795 0.0188533 0.0492104 
0.00359311 0.0163835 0.0473946 
0.00485622 0.0165125 0.0475346 
0.00142211 0.018428 0.0488351 
0.000775099 0.0190967 0.0493079 
-0.000159581 0.0180708 0.0485504 
0.000815142 0.017925 0.0484612 
0.00505439 0.0120364 0.0443002 
0.00595591 0.0119693 0.0442844 
0.00630653 0.0121093 0.0443986 
0.00656519 0.0092879 0.0423642 
0.00649075 0.00815354 0.0415396 
0.00667804 0.00792237 0.0413789 
0.00569145 0.00802817 0.0414202 
0.00705708 0.00592585 0.039946 
0.0014131 0.0100214 0.0427556 
0.0013678 0.011847 0.044075 
0.00151528 0.00860118 0.0417302 
0.00168722 0.00931077 0.0422462 
0.00248652 0.00717388 0.0407142 
0.000542037 0.00547644 0.0394543 
0.00121402 0.0050567 0.0391619 
0.00101098 0.00475869 0.038943 
0.00824947 0.00951276 0.0426112 
0.00734464 0.00879168 0.0420342 
0.0100203 0.0104982 0.0434327 
0.010565 0.00938777 0.0426597 
0.0125062 0.008376 0.0420922 
0.0108867 0.0094592 0.0427359 
0.0133857 0.0108239 0.0439465 
0.0125569 0.00960091 0.0429858 
0.00947728 0.00547637 0.0397562 
0.00791676 0.00696456 0.0407431 
0.0106475 0.00564729 0.0399501 
0.00834313 0.00728959 0.0410042 
0.0131076 0.0039535 0.038935 
0.0125979 0.00499066 0.039643 
0.0131357 0.00676109 0.0409754 
0.0130224 0.00517265 0.0398124 
0.0088131 0.013239 0.0453489 
0.00978284 0.0145377 0.04635 
0.0101899 0.0131555 0.0453715 
0.00875133 0.0138291 0.0457733 
0.00810188 0.0154395 0.0469016 
0.00828783 0.016383 0.0475974 
0.00792964 0.0179199 0.0486903 
0.00779345 0.0175448 0.0484099 
0.0118574 0.0120067 0.0446706 
0.0141305 0.0144636 0.046654 
0.0119816 0.0153813 0.047131 
0.0107915 0.0134982 0.0456594 
0.0114708 0.0161568 0.047649 
0.014119 0.0156668 0.0475264 
0.0134249 0.0182194 0.0493181 
0.0135725 0.0182375 0.0493443 
-0.00375702 0.0136371 0.0453471 
-0.00420113 0.015085 0.0463999 
-0.0069656 0.0134415 0.0452617 
-0.0069003 0.0135396 0.0453315 
-0.004439 0.0162567 0.0472511 
-0.00431688 0.0180481 0.0485419 
-0.00737401 0.0165394 0.0475103 
-0.00511749 0.0185867 0.0489459 
-0.00169458 0.0135382 0.0452736 
-0.00160202 0.0140422 0.0456379 
-0.00269161 0.0157835 0.0468959 
-0.00350171 0.0142397 0.0457789 
-0.00188558 0.0163012 0.0472708 
-0.00162373 0.0180181 0.0485111 
-0.00184992 0.0190163 0.0492326 
-0.00333314 0.0182932 0.0487097 
-0.00853801 0.01473 0.0462505 
-0.0098657 0.0153508 0.0467525 
-0.0100967 0.0130986 0.0451329 
-0.0105166 0.0131202 0.0451648 
-0.00991466 0.0126436 0.0447964 
-0.0121337 0.0148007 0.0464707 
-0.0130613 0.0144636 0.0462877 
-0.0131731 0.0134752 0.0455815 
-0.0131411 0.0126747 0.0449997 
-0.00941033 0.0179114 0.0485857 
-0.00939836 0.0181729 0.0487739 
-0.0110243 0.0180222 0.048733 
-0.0112559 0.0175527 0.0484026 
-0.0118942 0.0180806 0.0488235 
-0.0121458 0.0185605 0.0491866 
-0.0143074 0.0176053 0.0486418 
-0.0147898 0.0172006 0.0483803 
-0.00712248 0.0119419 0.0441804 
-0.00968647 0.00951626 0.0425231 
-0.00785069 0.010898 0.0434529 
-0.00726647 0.00809194 0.0414054 
-0.00742394 0.0106682 0.0432715 
-0.0100651 0.00676412 0.0405457 
-0.0076197 0.00747637 0.0409728 
-0.00712172 0.00489375 0.0390896 
-0.00832037 0.00514109 0.039309 
-0.0127352 0.00997084 0.0430158 
-0.0114501 0.0114388 0.0439981 
-0.0113966 0.0102674 0.0431476 
-0.0124218 0.00764494 0.0413155 
-0.0129856 0.00514953 0.0395422 
-0.0126028 0.00576824 0.0399673 
-0.0114667 0.00588559 0.0399848 
-0.0115308 0.00533795 0.039593 
-0.00634526 0.00860524 0.0417533 
-0.00601003 0.00867395 0.0417979 
-0.00422458 0.0120565 0.0442138 
-0.00427013 0.011037 0.0434785 
-0.0029079 0.0104095 0.0430105 
-0.00276393 0.0103698 0.0429822 
7.26846e-05 0.0113032 0.0436623 
-0.00215205 0.0115361 0.0438266 
-0.00638454 0.00747791 0.0409386 
-0.00575721 0.0062376 0.0400324 
-0.00615883 0.00799504 0.0413089 
-0.00370994 0.00809319 0.0413428 
-0.000609451 0.00482806 0.0389819 
-0.00166985 0.00584587 0.0397144 
9.06801e-05 0.00539194 0.0393919 
0.000189033 0.00549062 0.0394634 
-0.10251 -0.0357588 0.0230385 
-0.102072 -0.0359765 0.0240688 
-0.103406 -0.0357259 0.0229923 
-0.103008 -0.0360343 0.0242021 
-0.103733 -0.0358579 0.0239631 
-0.106304 -0.0348011 0.0234479 
-0.0989355 -0.0335899 0.0205269 
-0.0980372 -0.0334002 0.0212889 
-0.0974838 -0.0329277 0.020773 
-0.0994777 -0.0329426 0.0179109 
-0.0990664 -0.0329998 0.0186678 
-0.0983643 -0.0340612 0.0226864 
-0.0971133 -0.0334848 0.0228816 
-0.0969286 -0.0336703 0.0236741 
-0.0993976 -0.034895 0.0236135 
-0.0985187 -0.0348503 0.0246977 
-0.099659 -0.0342253 0.0213178 
-0.100286 -0.0337065 0.0189538 
-0.0935719 -0.0307936 0.0204767 
-0.0923235 -0.0302189 0.0206546 
-0.0912073 -0.0285515 0.0175426 
-0.0938518 -0.029744 0.0171077 
-0.0935031 -0.0298573 0.0179307 
-0.0925041 -0.0291875 0.0174818 
-0.0931649 -0.0307223 0.0208624 
-0.0915958 -0.0313644 0.0249388 
-0.0916198 -0.031628 0.0256499 
-0.0906477 -0.0294145 0.0207807 
-0.0907891 -0.0300622 0.0224097 
-0.0909142 -0.0306555 0.0239112 
-0.090673 -0.0309824 0.0251825 
-0.0938692 -0.0314277 0.0218337 
-0.0947178 -0.0318022 0.0216557 
-0.0963001 -0.032724 0.0219386 
-0.0952817 -0.0333875 0.0252947 
-0.0957616 -0.0335855 0.0251498 
-0.0938954 -0.0307747 0.0199547 
-0.0960302 -0.0306005 0.0163583 
-0.0961997 -0.0323081 0.0209152 
-0.0860475 -0.0264487 0.0188424 
-0.0855132 -0.0258768 0.0179464 
-0.0853065 -0.0263559 0.019584 
-0.083659 -0.0248596 0.017549 
-0.0823243 -0.0239904 0.0168292 
-0.0868598 -0.0256115 0.0153565 
-0.086224 -0.0255876 0.0161557 
-0.0842163 -0.0235737 0.0131455 
-0.0823781 -0.0234448 0.0152046 
-0.0838974 -0.0265514 0.0220435 
-0.0857479 -0.0271061 0.0211172 
-0.0841193 -0.0271451 0.0234318 
-0.0849071 -0.0280786 0.025025 
-0.0829874 -0.0254235 0.0200401 
-0.0818886 -0.0258317 0.0226484 
-0.0817426 -0.02648 0.0246896 
-0.0825626 -0.027371 0.0261673 
-0.0863256 -0.0272687 0.0207835 
-0.0875621 -0.0279074 0.0208754 
-0.0883124 -0.028586 0.0217474 
-0.0880502 -0.0299494 0.0259743 
-0.0882151 -0.0293859 0.0241477 
-0.0878383 -0.02769 0.019874 
-0.0863142 -0.0267275 0.0192669 
-0.0892241 -0.0266647 0.0150357 
-0.087557 -0.0255591 0.0142414 
-0.0893271 -0.0281608 0.0191085 
-0.0889473 -0.0276448 0.0181903 
-0.0897017 -0.0274687 0.0166245 
-0.0912832 -0.0275839 0.0147023 
-0.0761875 -0.0205508 0.0147194 
-0.0751561 -0.0214751 0.0186784 
-0.0737111 -0.0193463 0.0145064 
-0.0730848 -0.0199297 0.0169838 
-0.0776824 -0.0210104 0.0141351 
-0.0760183 -0.0203776 0.0144381 
-0.0750488 -0.0192095 0.0123559 
-0.0733739 -0.0188621 0.0135793 
-0.0745456 -0.0220912 0.0212193 
-0.0743497 -0.0224283 0.0224339 
-0.076105 -0.0229863 0.0218024 
-0.0733744 -0.0229556 0.0251838 
-0.0753165 -0.0236987 0.0248458 
-0.0722016 -0.02084 0.0207257 
-0.0733672 -0.0209358 0.0194609 
-0.0727013 -0.0218021 0.022792 
-0.0726902 -0.0219614 0.0232576 
-0.0726609 -0.0229316 0.026044 
-0.0763489 -0.0234473 0.0228202 
-0.0775527 -0.0230977 0.0203066 
-0.0791532 -0.0247573 0.023072 
-0.0800258 -0.0250379 0.0227759 
-0.0802437 -0.0243926 0.0206439 
-0.0759401 -0.0236557 0.0239322 
-0.0758 -0.0239144 0.0248525 
-0.0782591 -0.0245808 0.0236932 
-0.0786735 -0.0252799 0.0251823 
-0.0804132 -0.0259972 0.0250479 
-0.078885 -0.0228071 0.0177977 
-0.0780897 -0.0215703 0.0152349 
-0.0792553 -0.021642 0.013978 
-0.0784259 -0.0206907 0.0122817 
-0.0815143 -0.0238152 0.0173686 
-0.0811001 -0.0236728 0.0174846 
-0.0813324 -0.0234523 0.0165552 
-0.0819818 -0.0230774 0.0146529 
-0.0805279 -0.0221575 0.0138577 
-0.0659526 -0.0153458 0.0144861 
-0.0673863 -0.0163053 0.0149718 
-0.0662398 -0.0160393 0.0159463 
-0.0651362 -0.0147118 0.0139771 
-0.0642635 -0.0147692 0.0154381 
-0.0631224 -0.0141918 0.0155815 
-0.067788 -0.0158192 0.0130559 
-0.066301 -0.0148588 0.0126467 
-0.0650128 -0.0134382 0.0107148 
-0.0641738 -0.0135323 0.0122246 
-0.0639963 -0.0135689 0.0125891 
-0.064205 -0.0166328 0.0205704 
-0.0654757 -0.0166032 0.0186097 
-0.0644758 -0.0174889 0.022497 
-0.0643155 -0.0178167 0.0236254 
-0.0636366 -0.0177525 0.0244552 
-0.0650555 -0.0186554 0.0248105 
-0.0638187 -0.0184718 0.0261411 
-0.0625276 -0.0152803 0.0194162 
-0.0622664 -0.0163132 0.0226024 
-0.0613717 -0.0168873 0.0254928 
-0.0631554 -0.017469 0.0244032 
-0.0680268 -0.0190334 0.0215149 
-0.0680216 -0.0183819 0.0197354 
-0.0693869 -0.0195209 0.0209114 
-0.0694835 -0.0193879 0.0204071 
-0.0705144 -0.0194764 0.0192175 
-0.0671957 -0.0204331 0.0265554 
-0.0666712 -0.0193248 0.024274 
-0.0672841 -0.0193144 0.0233595 
-0.0689969 -0.0207899 0.0249823 
-0.0703751 -0.0220989 0.0267024 
-0.0706242 -0.0213189 0.024187 
-0.0688794 -0.0182762 0.0182049 
-0.0675857 -0.0174641 0.0178485 
-0.0689548 -0.0170859 0.0148313 
-0.0698048 -0.0172809 0.0141367 
-0.0698867 -0.0165482 0.0120086 
-0.0694656 -0.0163445 0.0120589 
-0.0705698 -0.0163514 0.0104811 
-0.071912 -0.0198962 0.0184383 
-0.072067 -0.0196205 0.0174562 
-0.0700868 -0.0183533 0.0166907 
-0.0729823 -0.0183494 0.0126476 
-0.0706545 -0.0171431 0.0125356 
-0.0572897 -0.0106773 0.0146053 
-0.0567463 -0.0105547 0.0150347 
-0.0553664 -0.0100914 0.015703 
-0.055999 -0.0100532 0.0147083 
-0.0544891 -0.00932217 0.0147321 
-0.0551324 -0.0103074 0.0166205 
-0.0529404 -0.00854854 0.0146396 
-0.0530404 -0.00955639 0.0173134 
-0.0574806 -0.00931937 0.0106035 
-0.0567187 -0.00842088 0.00920909 
-0.05648 -0.00845958 0.00965173 
-0.0567576 -0.00938004 0.0117893 
-0.0546827 -0.00769965 0.00995391 
-0.0542559 -0.00727238 0.00933373 
-0.0532482 -0.00804125 0.0128171 
-0.0545596 -0.00816512 0.0114143 
-0.055062 -0.0119112 0.0211323 
-0.0570114 -0.0124075 0.0197565 
-0.0561752 -0.0124421 0.0210277 
-0.0542061 -0.0128824 0.025006 
-0.0554031 -0.0130833 0.0238776 
-0.0556151 -0.0142727 0.0268548 
-0.0554991 -0.0135825 0.0251165 
-0.0534894 -0.0102412 0.0186234 
-0.0547317 -0.0109143 0.0188468 
-0.0529232 -0.0115607 0.0230555 
-0.0536542 -0.012618 0.0250343 
-0.0530623 -0.0125437 0.0256125 
-0.0577508 -0.013707 0.0222244 
-0.0570921 -0.0128302 0.0207987 
-0.0591294 -0.0133638 0.019276 
-0.0606968 -0.0151815 0.0218806 
-0.061398 -0.0145434 0.0191074 
-0.0615598 -0.015196 0.0206335 
-0.0579478 -0.0152353 0.0261002 
-0.0566329 -0.0137123 0.0238699 
-0.0576226 -0.0141601 0.0236455 
-0.0597821 -0.0160978 0.0257246 
-0.058629 -0.0155362 0.0259197 
-0.0608258 -0.016306 0.024734 
-0.0604291 -0.0123105 0.0145066 
-0.0598478 -0.0132484 0.0179113 
-0.0588095 -0.0117727 0.0154108 
-0.0584607 -0.0109641 0.0137215 
-0.0595609 -0.0111427 0.0125981 
-0.0596497 -0.0102657 0.0100818 
-0.0620959 -0.0142349 0.0172311 
-0.062811 -0.0136741 0.0146456 
-0.0615366 -0.0130547 0.0148695 
-0.0618206 -0.0123344 0.0124967 
-0.0621233 -0.0127568 0.0131884 
-0.0626756 -0.0118106 0.00980335 
-0.0615165 -0.0120543 0.0121923 
-0.0465729 -0.00532522 0.0130186 
-0.0459606 -0.00551772 0.0142516 
-0.0446663 -0.00555409 0.0157866 
-0.0455166 -0.00584772 0.0156937 
-0.0435541 -0.00541904 0.0166011 
-0.0438519 -0.00484415 0.0146188 
-0.0432506 -0.00565189 0.0175978 
-0.0420867 -0.00469051 0.0160511 
-0.0462436 -0.00423909 0.0102547 
-0.0464094 -0.00381213 0.00884014 
-0.046228 -0.00428772 0.010412 
-0.0453874 -0.00447967 0.0118943 
-0.042623 -0.00235059 0.00870633 
-0.0420411 -0.00226222 0.00906967 
-0.0426202 -0.00366106 0.0125027 
-0.044706 -0.00690939 0.0196466 
-0.0446624 -0.00727417 0.0207454 
-0.0447791 -0.00770087 0.0218474 
-0.0450444 -0.00754501 0.021105 
-0.0442571 -0.00863583 0.0251177 
-0.045141 -0.00946622 0.0265396 
-0.0442876 -0.00886097 0.0257335 
-0.0420443 -0.00576371 0.0192029 
-0.0422863 -0.00571912 0.0188168 
-0.0426694 -0.00658596 0.0209207 
-0.0433479 -0.00644795 0.0198003 
-0.0404656 -0.00697068 0.0243745 
-0.0408072 -0.00677241 0.0234379 
-0.0426819 -0.00796594 0.024906 
-0.0408941 -0.00782983 0.0264081 
-0.0468647 -0.00877182 0.0225941 
-0.047151 -0.00830126 0.0209165 
-0.0488663 -0.0089253 0.0207115 
-0.0489935 -0.00853453 0.0194446 
-0.0498874 -0.010068 0.0227218 
-0.0503758 -0.00995985 0.0218136 
-0.0508371 -0.00908791 0.0187754 
-0.0469409 -0.0101172 0.0263563 
-0.0480842 -0.0103254 0.0256284 
-0.0493432 -0.0105185 0.0246692 
-0.0505035 -0.0104477 0.0230369 
-0.0480108 -0.00700896 0.0162194 
