ply
format ascii 1.0
comment Created by CloudCompare v2.11.3 (Anoia)
comment Created 7/25/25 10:16 AM
obj_info Generated by CloudCompare!
element vertex 1851
property float x
property float y
property float z
end_header
1.09592 0.925708 1.03544 
1.09848 0.923152 1.03593 
1.09439 0.928187 1.03511 
1.09655 0.927441 1.03631 
1.09414 0.938276 1.03478 
1.09369 0.936795 1.03459 
1.09287 0.932988 1.0343 
1.09484 0.932775 1.03569 
1.09336 0.946755 1.03561 
1.0927 0.942476 1.0344 
1.09204 0.94195 1.03385 
1.0935 0.940939 1.03465 
1.09145 0.953339 1.03661 
1.09204 0.951953 1.03644 
1.09233 0.95055 1.03615 
1.09173 0.950174 1.03566 
1.09346 0.951339 1.03682 
1.0934 0.950191 1.03646 
1.09278 0.963067 1.04219 
1.09349 0.964905 1.04322 
1.09196 0.962817 1.04172 
1.0905 0.963705 1.04163 
1.09101 0.962658 1.0412 
1.09268 0.959925 1.0404 
1.09305 0.960417 1.04078 
1.09339 0.959005 1.04009 
1.08326 0.984825 1.05132 
1.0815 0.986109 1.05143 
1.07981 0.988788 1.0521 
1.08396 0.985269 1.05149 
1.08204 0.987454 1.05201 
1.07961 0.990234 1.05253 
1.08066 0.985187 1.05062 
1.0833 0.98244 1.05017 
1.07909 0.983268 1.04883 
1.08013 0.982173 1.04865 
1.0801 0.981836 1.04844 
1.07771 0.989273 1.05159 
1.08064 0.985958 1.05103 
1.07827 0.987226 1.05073 
1.07676 0.987449 1.05017 
1.07859 0.984603 1.04937 
1.07889 0.985224 1.04986 
1.08578 0.978969 1.04919 
1.08548 0.978136 1.04859 
1.0873 0.976829 1.04853 
1.08249 0.979869 1.04834 
1.08355 0.978268 1.04784 
1.08366 0.977414 1.04738 
1.08546 0.975311 1.04687 
1.08568 0.97576 1.04724 
1.08607 0.979789 1.04974 
1.08671 0.980259 1.05012 
1.08812 0.977888 1.04931 
1.08914 0.977409 1.04912 
1.09076 0.970689 1.04614 
1.08851 0.970698 1.04527 
1.08875 0.9695 1.04461 
1.08798 0.973935 1.04709 
1.08805 0.972695 1.04634 
1.08817 0.971891 1.04589 
1.09101 0.968838 1.04508 
1.09148 0.965641 1.04326 
1.09177 0.96786 1.04475 
1.08967 0.969207 1.0448 
1.09029 0.96529 1.04254 
1.09094 0.966487 1.04358 
1.09193 0.970707 1.04631 
1.09223 0.966754 1.0442 
1.07083 0.998201 1.05313 
1.06966 0.998932 1.05304 
1.06571 1.00243 1.05318 
1.06578 1.00167 1.0529 
1.06836 1.00106 1.05333 
1.06911 0.997741 1.05231 
1.07029 0.996418 1.05213 
1.06828 0.995926 1.05095 
1.06935 0.993547 1.05011 
1.06687 0.995566 1.05009 
1.0657 1.00105 1.05261 
1.06667 0.99952 1.0522 
1.06347 1.00033 1.05126 
1.06324 0.999911 1.05091 
1.0655 0.997165 1.05037 
1.07241 0.993857 1.05171 
1.07362 0.992958 1.05177 
1.07589 0.990214 1.05131 
1.07639 0.991355 1.05212 
1.0719 0.990751 1.04975 
1.07201 0.992272 1.05066 
1.07238 0.992125 1.05075 
1.07514 0.988124 1.04979 
1.07552 0.989735 1.05088 
1.07484 0.993657 1.05261 
1.07316 0.996048 1.05303 
1.0779 0.990181 1.05214 
1.07648 0.992833 1.05278 
1.07764 0.991919 1.05275 
1.07593 0.994344 1.05306 
1.05079 1.01192 1.05315 
1.05374 1.0109 1.05332 
1.0535 1.00919 1.05255 
1.0541 1.00906 1.05268 
1.05659 1.00665 1.05215 
1.05417 1.00666 1.05128 
1.05528 1.0061 1.05135 
1.05496 1.00424 1.05007 
1.04897 1.01046 1.05183 
1.05204 1.00874 1.0518 
1.052 1.00818 1.05144 
1.05207 1.0075 1.05103 
1.04951 1.0075 1.05014 
1.05756 1.00549 1.05185 
1.0606 1.00441 1.05237 
1.06152 1.00299 1.05196 
1.06355 1.00264 1.05258 
1.05758 1.00252 1.05007 
1.05622 1.00399 1.05041 
1.05924 1.00229 1.0506 
1.06119 0.999831 1.04998 
1.06324 1.00081 1.05144 
1.06126 1.00152 1.05101 
1.06119 1.00625 1.05331 
1.05932 1.0081 1.05339 
1.06266 1.004 1.0529 
1.06333 1.00417 1.05317 
1.04067 1.01663 1.05316 
1.03452 1.01895 1.05317 
1.03328 1.01888 1.05294 
1.04122 1.01771 1.05349 
1.03334 1.02047 1.0535 
1.03657 1.01636 1.0521 
1.03953 1.01485 1.05187 
1.03722 1.014 1.05069 
1.03626 1.01482 1.05099 
1.03641 1.01359 1.05019 
1.03759 1.01306 1.05015 
1.03195 1.01906 1.0528 
1.03477 1.01728 1.05227 
1.03246 1.01681 1.05143 
1.03421 1.01593 1.05124 
1.03401 1.01535 1.05079 
1.03513 1.01499 1.0508 
1.04315 1.01347 1.05199 
1.04082 1.0144 1.05192 
1.04349 1.0137 1.05222 
1.0452 1.01318 1.05237 
1.04692 1.01218 1.05228 
1.04282 1.01087 1.05017 
1.04103 1.01232 1.05061 
1.04219 1.01266 1.05119 
1.04141 1.0136 1.05159 
1.04685 1.00858 1.04993 
1.04668 1.00952 1.0505 
1.04755 1.00984 1.05099 
1.04323 1.01529 1.05305 
1.04288 1.01582 1.05323 
1.04206 1.01651 1.05336 
1.04884 1.01315 1.05326 
1.0227 1.02213 1.05309 
1.02045 1.02244 1.05302 
1.01663 1.024 1.05335 
1.02147 1.02129 1.05246 
1.02209 1.02083 1.05224 
1.02114 1.01997 1.05152 
1.02112 1.01921 1.05097 
1.0218 1.01779 1.05005 
1.01689 1.02227 1.05255 
1.01729 1.0209 1.05168 
1.01659 1.0203 1.05116 
1.01642 1.01923 1.05036 
1.0163 1.01951 1.05056 
1.02279 1.02029 1.05197 
1.02593 1.02068 1.05274 
1.02835 1.01899 1.05205 
1.03085 1.01897 1.05252 
1.0244 1.01781 1.0505 
1.02287 1.01839 1.05065 
1.02547 1.01748 1.05045 
1.02596 1.01904 1.05165 
1.02706 1.01821 1.05125 
1.02792 1.01622 1.05003 
1.02852 1.01824 1.05158 
1.03008 1.01615 1.05043 
1.02727 1.02121 1.05318 
1.02378 1.02208 1.05319 
1.02695 1.02196 1.05342 
1.0256 1.02278 1.0535 
1.0304 1.02006 1.05306 
1.02734 1.02069 1.05293 
1.02972 1.021 1.05341 
1.03123 1.0214 1.05354 
1.00417 1.02453 1.05306 
1.00029 1.02376 1.05259 
1.00351 1.02352 1.05249 
1.00577 1.02269 1.05201 
1.0049 1.02145 1.05111 
1.00506 1.02148 1.05114 
1.00693 1.02113 1.05096 
1.00287 1.02367 1.05257 
1.00296 1.0223 1.05165 
0.999827 1.02121 1.05082 
1.00207 1.02129 1.05092 
1.00109 1.0198 1.04982 
1.00907 1.02185 1.05161 
1.01016 1.02244 1.05207 
1.01246 1.02225 1.05212 
1.01281 1.02232 1.05219 
1.0075 1.01967 1.04993 
1.00956 1.02105 1.05106 
1.01395 1.01899 1.04992 
1.01178 1.02101 1.0512 
1.01389 1.02094 1.05133 
1.0086 1.02381 1.05285 
1.00755 1.02452 1.05316 
1.00887 1.02463 1.05326 
1.01152 1.02336 1.05277 
0.992067 1.02417 1.05277 
0.997061 1.02474 1.05305 
0.987977 1.0234 1.05247 
0.984567 1.02265 1.05223 
0.991008 1.02434 1.05287 
0.985668 1.02453 1.05284 
0.985814 1.02408 1.05276 
0.988956 1.02206 1.05162 
0.991841 1.02305 1.05217 
0.98991 1.02058 1.05054 
0.988912 1.02079 1.05074 
0.991386 1.0205 1.05042 
0.985035 1.02132 1.05134 
0.986392 1.02111 1.05112 
0.98542 1.01949 1.05002 
0.986271 1.01952 1.04999 
0.994604 1.02203 1.05143 
0.993002 1.0233 1.05232 
0.999282 1.0227 1.05186 
0.992926 1.01957 1.04969 
0.992526 1.02038 1.05029 
0.994124 1.0215 1.05107 
0.996695 1.02015 1.05005 
0.997017 1.02155 1.05106 
0.980043 0.997504 1.03448 
0.981303 0.998315 1.03501 
0.98654 0.998308 1.03443 
0.983074 0.997593 1.03411 
0.984915 0.99763 1.03389 
0.983981 0.997762 1.03418 
0.979743 0.99855 1.0354 
0.980485 0.999828 1.03627 
0.98203 1.00212 1.03776 
0.978863 1.00124 1.03748 
0.98483 0.999402 1.03551 
0.983892 1.00082 1.03665 
0.985483 1.00238 1.03765 
0.985238 1.00282 1.03798 
0.984417 1.00256 1.03786 
0.978976 0.998964 1.0358 
0.976474 0.999058 1.03623 
0.973939 0.998999 1.03659 
0.973018 0.997969 1.03598 
0.976008 1.00188 1.03833 
0.976756 1.00164 1.03806 
0.97574 1.00149 1.03809 
0.97797 1.00034 1.03696 
0.974954 1.00028 1.03734 
0.971586 0.999939 1.03764 
0.97305 0.999898 1.03738 
0.977894 0.997652 1.03494 
0.97664 0.996759 1.03439 
0.976809 0.996575 1.03417 
0.975056 0.997413 1.03522 
0.973277 0.996055 1.03442 
0.975862 0.996472 1.03427 
0.967496 0.994889 1.03479 
0.972196 0.995742 1.03438 
0.966484 0.993724 1.034 
0.966702 0.995341 1.03535 
0.966704 0.996824 1.03642 
0.967879 0.999264 1.03788 
0.96615 0.997503 1.03702 
0.96597 0.998969 1.03808 
0.971685 0.997668 1.036 
0.96896 0.997056 1.03609 
0.970992 1.00043 1.0381 
0.968779 0.999018 1.03753 
0.963261 0.995739 1.03644 
0.964334 0.994835 1.03553 
0.961553 0.995403 1.03661 
0.959534 0.994163 1.03622 
0.963615 0.998565 1.03832 
0.96318 0.998422 1.03832 
0.964258 0.996737 1.0369 
0.961677 0.997005 1.03768 
0.960843 0.996991 1.03787 
0.959962 0.996045 1.03743 
0.965613 0.99413 1.03465 
0.965201 0.993097 1.03378 
0.962233 0.992592 1.03432 
0.956818 0.991387 1.03487 
0.957401 0.990148 1.0335 
0.957699 0.990537 1.03382 
0.955432 0.992661 1.03617 
0.954208 0.99282 1.0366 
0.954847 0.994694 1.03773 
0.95321 0.993928 1.0376 
0.958238 0.993254 1.03589 
0.958044 0.993916 1.03641 
0.959018 0.994924 1.03688 
0.957039 0.994773 1.03725 
0.951884 0.991589 1.03633 
0.948988 0.989325 1.0355 
0.953032 0.993035 1.03703 
0.951375 0.993945 1.03807 
0.950295 0.992524 1.03737 
0.948787 0.991762 1.03725 
0.949975 0.991019 1.03643 
0.954022 0.989917 1.0345 
0.949309 0.987631 1.0341 
0.950546 0.988337 1.03428 
0.951344 0.987759 1.03337 
0.944301 0.985375 1.03401 
0.946936 0.987513 1.0348 
0.94702 0.98608 1.03351 
0.945963 0.987536 1.03511 
0.944298 0.987451 1.03556 
0.943535 0.988749 1.03667 
0.942799 0.987922 1.03633 
0.948309 0.988368 1.03502 
0.946938 0.990601 1.03695 
0.94461 0.990424 1.03749 
0.945035 0.991212 1.0379 
0.942359 0.986814 1.03571 
0.941773 0.985599 1.03505 
0.94038 0.98529 1.03528 
0.940766 0.984483 1.0346 
0.941613 0.988297 1.03694 
0.940757 0.986985 1.03632 
0.937545 0.986524 1.037 
0.941929 0.984706 1.03435 
0.942602 0.984579 1.034 
0.942801 0.984061 1.03345 
0.944034 0.98464 1.03343 
0.94009 0.983777 1.0343 
0.941332 0.984117 1.0341 
0.938701 0.98243 1.03376 
0.938698 0.982492 1.03381 
0.935945 0.980416 1.03315 
0.935772 0.982517 1.03486 
0.934568 0.981647 1.03463 
0.933856 0.982889 1.03572 
0.933008 0.984101 1.03679 
0.938216 0.983796 1.03495 
0.937231 0.983995 1.03541 
0.936574 0.984668 1.03607 
0.935178 0.985123 1.03681 
0.931093 0.980811 1.03512 
0.930272 0.98007 1.03482 
0.932318 0.983396 1.03653 
0.931027 0.982384 1.03622 
0.928489 0.981932 1.03661 
0.929197 0.980135 1.03516 
0.933532 0.980366 1.03405 
0.933354 0.979724 1.0336 
0.933331 0.97866 1.03258 
0.931532 0.979147 1.03377 
0.930057 0.977604 1.03298 
0.926587 0.976771 1.03329 
0.926348 0.977737 1.03411 
0.92379 0.977133 1.03421 
0.924903 0.979027 1.03539 
0.927677 0.977761 1.0338 
0.926714 0.980315 1.03591 
0.925307 0.979363 1.03555 
0.922959 0.976893 1.03419 
0.918788 0.97512 1.0336 
0.919705 0.975082 1.0334 
0.921458 0.976636 1.03428 
0.918452 0.976552 1.03476 
0.923158 0.975416 1.03297 
0.923726 0.975101 1.03256 
0.923814 0.974532 1.03193 
0.915317 0.971632 1.03141 
0.916095 0.971406 1.03096 
0.915698 0.972675 1.03222 
0.914568 0.973028 1.03272 
0.914703 0.973686 1.03321 
0.917935 0.973661 1.03259 
0.917566 0.976371 1.03477 
0.912238 0.971514 1.03194 
0.912858 0.97324 1.03319 
0.911586 0.971912 1.03238 
0.913966 0.970842 1.031 
0.911924 0.970115 1.03082 
0.908052 0.968428 1.03022 
0.909906 0.968832 1.03013 
0.909609 0.968487 1.02986 
0.906954 0.968828 1.03078 
0.908032 0.969723 1.0313 
0.909559 0.969551 1.03085 
0.905033 0.968301 1.03071 
0.906532 0.966781 1.02897 
0.904954 0.966309 1.029 
0.902295 0.964985 1.02835 
0.900914 0.966693 1.0301 
0.901997 0.966983 1.03017 
0.893136 0.965592 1.02646 
1.10494 0.907079 1.02741 
1.10178 0.913339 1.02882 
1.09951 0.91352 1.0279 
1.10242 0.910918 1.02769 
1.10285 0.912052 1.02857 
1.10409 0.909358 1.02797 
1.09868 0.915455 1.03104 
1.09988 0.91579 1.03183 
1.0987 0.915847 1.03237 
1.09773 0.915169 1.03035 
1.09697 0.914816 1.02942 
1.09625 0.915096 1.03056 
1.09473 0.914682 1.02965 
1.0969 0.916162 1.03261 
1.09501 0.915569 1.03116 
1.09398 0.91538 1.03043 
1.09507 0.914888 1.03029 
1.0983 0.915901 1.03277 
1.09573 0.918116 1.03251 
1.09569 0.919507 1.03298 
1.09652 0.920455 1.03387 
1.09361 0.917801 1.03102 
1.0926 0.917513 1.03026 
1.09334 0.919133 1.03132 
1.09526 0.916881 1.03178 
1.09426 0.915905 1.03079 
1.09541 0.916011 1.03158 
1.09614 0.917597 1.03259 
1.09368 0.924165 1.03344 
1.09287 0.923749 1.03277 
1.09507 0.924399 1.03443 
1.09139 0.923665 1.03177 
1.09119 0.923296 1.03152 
1.09097 0.922518 1.03109 
1.09186 0.925038 1.03254 
1.09595 0.923195 1.03455 
1.09613 0.921025 1.03383 
1.09144 0.931115 1.03328 
1.09243 0.931692 1.03404 
1.08788 0.929896 1.03057 
1.09115 0.926639 1.03251 
1.08879 0.926521 1.03086 
1.08911 0.926334 1.03105 
1.0933 0.928672 1.03443 
1.09031 0.934306 1.03215 
1.09037 0.935988 1.03208 
1.08974 0.934374 1.03169 
1.08946 0.93407 1.0315 
1.08774 0.934425 1.03012 
1.08804 0.936279 1.03032 
1.08847 0.932109 1.03091 
1.08952 0.932674 1.03168 
1.09053 0.933451 1.0324 
1.08974 0.942553 1.03233 
1.08997 0.946606 1.03344 
1.08902 0.945525 1.03252 
1.08798 0.942776 1.03116 
1.08678 0.943391 1.03046 
1.08607 0.943228 1.02993 
1.08763 0.944176 1.03123 
1.08701 0.943859 1.03072 
1.08872 0.938496 1.03097 
1.08654 0.940902 1.02977 
1.08715 0.939647 1.02999 
1.08969 0.937523 1.03157 
1.09051 0.938743 1.0323 
1.09149 0.939984 1.03314 
1.08979 0.952602 1.03528 
1.08719 0.951902 1.03339 
1.08522 0.949699 1.03129 
1.08679 0.952867 1.03359 
1.08674 0.948524 1.03185 
1.0878 0.949679 1.03293 
1.0854 0.946669 1.03038 
1.08611 0.945659 1.03056 
1.08931 0.9504 1.03415 
1.08989 0.94919 1.03413 
1.08846 0.947008 1.03253 
1.09013 0.948827 1.03418 
1.08865 0.960212 1.03861 
1.08727 0.959404 1.03747 
1.08774 0.961553 1.03905 
1.09011 0.960461 1.03946 
1.08945 0.960699 1.03928 
1.08938 0.96102 1.03944 
1.08971 0.963277 1.041 
1.08342 0.956515 1.03392 
1.08418 0.958313 1.03542 
1.08562 0.95385 1.03342 
1.08584 0.95303 1.03311 
1.08484 0.953918 1.03303 
1.08832 0.956336 1.03619 
1.07715 0.976028 1.04374 
1.07741 0.975909 1.04379 
1.07673 0.980089 1.04593 
1.07659 0.97787 1.04457 
1.07535 0.979537 1.045 
1.07489 0.978625 1.04427 
1.07424 0.978876 1.04411 
1.07264 0.981474 1.04488 
1.07413 0.979181 1.04424 
1.08012 0.978593 1.04655 
1.08044 0.979201 1.04706 
1.07743 0.98083 1.04668 
1.07881 0.981611 1.04774 
1.07697 0.981057 1.0466 
1.07705 0.982582 1.04751 
1.07507 0.982573 1.04661 
1.07556 0.986304 1.04897 
1.07379 0.976775 1.04271 
1.07392 0.975683 1.04212 
1.07537 0.972832 1.04109 
1.07486 0.972959 1.04094 
1.07281 0.97343 1.04032 
1.07152 0.973425 1.03975 
1.07046 0.971546 1.03818 
1.07229 0.97797 1.04271 
1.07329 0.977711 1.04302 
1.07237 0.977452 1.04245 
1.07365 0.976892 1.04271 
1.0719 0.97716 1.04207 
1.07093 0.975223 1.04052 
1.06872 0.975491 1.03968 
1.06969 0.973994 1.03926 
1.06902 0.974516 1.03925 
1.07623 0.971639 1.04073 
1.07648 0.973024 1.04167 
1.07772 0.97257 1.04193 
1.0775 0.974041 1.04272 
1.07802 0.970251 1.04066 
1.07946 0.969181 1.0406 
1.07901 0.967707 1.0395 
1.07446 0.967884 1.03772 
1.074 0.96803 1.03762 
1.07631 0.968947 1.03915 
1.07507 0.968996 1.03865 
1.07633 0.965865 1.03725 
1.07603 0.966371 1.03744 
1.07719 0.967118 1.03838 
1.07761 0.967821 1.03899 
1.07874 0.973835 1.04313 
1.07857 0.976371 1.04457 
1.07773 0.974837 1.04329 
1.08097 0.975566 1.04512 
1.08113 0.976123 1.04552 
1.08265 0.977524 1.04702 
1.08278 0.977442 1.04702 
1.07998 0.971123 1.04201 
1.08222 0.972793 1.04397 
1.08171 0.97211 1.04334 
1.08491 0.973108 1.0453 
1.08269 0.975241 1.04566 
1.08433 0.974392 1.04584 
1.0855 0.967701 1.04212 
1.0835 0.967322 1.04108 
1.0838 0.970735 1.04336 
1.08321 0.967766 1.04124 
1.08321 0.970942 1.04325 
1.08815 0.968801 1.04391 
1.08601 0.96834 1.04274 
1.08599 0.973248 1.04584 
1.08605 0.970538 1.04416 
1.08498 0.971857 1.04455 
1.08145 0.965117 1.03883 
1.08181 0.964312 1.03845 
1.08113 0.963433 1.0376 
1.07914 0.961849 1.03577 
1.08126 0.968852 1.04114 
1.08088 0.96712 1.03989 
1.0826 0.966764 1.04036 
1.07798 0.96565 1.03779 
1.07784 0.964556 1.03703 
1.08345 0.963129 1.03831 
1.08443 0.963467 1.03893 
1.08352 0.96102 1.03694 
1.08538 0.960503 1.03736 
1.08114 0.961836 1.03655 
1.08191 0.961834 1.03684 
1.08196 0.958157 1.03439 
1.0856 0.964553 1.04012 
1.08596 0.965744 1.04104 
1.08814 0.965754 1.04194 
1.08878 0.967884 1.04358 
1.08706 0.961793 1.03891 
1.0874 0.964111 1.04056 
1.08784 0.963864 1.04058 
1.08829 0.964842 1.04141 
1.06632 0.98885 1.04606 
1.06552 0.991001 1.04689 
1.06361 0.990008 1.04544 
1.0638 0.990591 1.04586 
1.06191 0.994123 1.047 
1.06202 0.992732 1.04625 
1.06383 0.992876 1.04716 
1.06122 0.99124 1.04503 
1.0593 0.992031 1.04461 
1.06092 0.991761 1.04519 
1.0684 0.99277 1.04924 
1.06747 0.993511 1.04921 
1.06664 0.991459 1.04767 
1.06616 0.99415 1.04896 
1.06345 0.997278 1.0495 
1.06426 0.994235 1.04813 
1.06302 0.996292 1.04874 
1.06291 0.9961 1.04858 
1.06049 0.986921 1.04224 
1.0624 0.988196 1.04385 
1.06243 0.988326 1.04394 
1.06332 0.984531 1.04222 
1.06245 0.983891 1.04146 
1.06016 0.986151 1.04165 
1.05971 0.985976 1.04134 
1.05988 0.985842 1.04135 
1.0612 0.984278 1.04109 
1.06167 0.982639 1.04039 
1.06021 0.981474 1.03905 
1.05983 0.991245 1.0444 
1.06026 0.989681 1.0437 
1.0577 0.989838 1.04262 
1.05708 0.989099 1.04192 
1.05834 0.98865 1.04223 
1.06108 0.989455 1.04395 
1.05619 0.987265 1.04046 
1.05815 0.986226 1.04077 
1.05543 0.986012 1.0394 
1.05634 0.985888 1.03975 
1.06481 0.982427 1.04175 
1.0654 0.982759 1.04221 
1.06592 0.981999 1.04204 
1.06596 0.982916 1.04257 
1.06691 0.984999 1.04418 
1.06712 0.981202 1.04216 
1.06777 0.979596 1.04156 
1.06892 0.98146 1.04314 
1.06957 0.977972 1.04148 
1.06293 0.980952 1.04004 
1.06209 0.981065 1.03971 
1.06402 0.978976 1.03945 
1.06555 0.980704 1.04114 
1.06706 0.975226 1.03876 
1.06675 0.976263 1.03921 
1.0684 0.976467 1.04009 
1.0674 0.97875 1.04091 
1.06672 0.97793 1.04013 
1.06884 0.985802 1.04554 
1.06985 0.986121 1.0462 
1.06663 0.988154 1.04581 
1.0689 0.987529 1.04654 
1.07007 0.987475 1.04706 
1.06979 0.989873 1.04826 
1.07058 0.988005 1.04759 
1.06953 0.991326 1.04896 
1.07132 0.990498 1.04934 
1.07335 0.983821 1.04654 
1.07032 0.983693 1.04505 
1.07101 0.984853 1.04603 
1.07023 0.98406 1.04521 
1.07193 0.986239 1.04724 
1.07228 0.986077 1.04731 
1.0729 0.989251 1.04938 
1.07234 0.987998 1.04842 
1.05162 0.999936 1.04612 
1.05215 0.999065 1.04578 
1.0525 0.999552 1.04621 
1.05008 1.00048 1.04587 
1.04984 0.999606 1.04524 
1.04962 1.00201 1.04665 
1.04693 1.00363 1.04675 
1.04628 1.00162 1.04523 
1.04608 1.00334 1.04626 
1.05293 1.00338 1.04877 
1.05314 1.00217 1.04809 
1.0528 1.00269 1.04828 
1.05306 1.00216 1.04805 
1.05142 1.00563 1.0496 
1.05094 1.00477 1.04888 
1.04745 1.00461 1.04756 
1.04847 1.00516 1.04828 
1.04775 0.996411 1.04244 
1.04776 0.997656 1.04322 
1.04954 0.995835 1.04277 
1.04836 0.995008 1.0418 
1.04583 0.993788 1.04007 
1.04649 0.995449 1.04136 
1.04659 0.992118 1.03933 
1.04747 0.9911 1.03903 
1.04661 0.998926 1.04362 
1.04452 0.999737 1.04339 
1.0445 0.999537 1.04326 
1.04513 0.997442 1.04214 
1.04498 0.997195 1.04193 
1.0433 0.997198 1.04134 
1.0441 0.995707 1.04067 
1.0451 0.993126 1.03938 
1.04338 0.994479 1.03963 
1.05139 0.996312 1.04378 
1.0519 0.994686 1.04301 
1.05173 0.995777 1.0436 
1.05414 0.994032 1.04353 
1.05364 0.995614 1.04428 
1.05536 0.990624 1.04204 
1.05439 0.992204 1.04255 
1.05721 0.990544 1.0428 
1.0562 0.991955 1.04319 
1.04982 0.992648 1.04092 
1.04896 0.990333 1.03916 
1.05112 0.991676 1.04087 
1.05133 0.988746 1.03918 
1.05292 0.990387 1.04084 
1.05311 0.986931 1.0389 
1.05432 0.990141 1.04131 
1.05435 0.989209 1.04078 
1.05483 0.997755 1.04606 
1.05642 0.997847 1.04676 
1.05287 0.997945 1.04538 
1.05499 0.999003 1.04688 
1.05862 1.00106 1.0496 
1.05829 1.00106 1.04947 
1.05503 1.00258 1.04907 
1.05518 1.00332 1.04958 
1.05641 1.00128 1.04884 
1.05858 0.994923 1.04597 
1.05734 0.993496 1.04459 
1.05783 0.993579 1.04485 
1.05686 0.996355 1.04606 
1.05637 0.996478 1.04592 
1.05863 0.997421 1.04746 
1.05924 0.997102 1.04753 
1.06168 0.998753 1.04956 
1.05867 0.99991 1.04894 
1.03454 1.00995 1.04719 
1.03609 1.00831 1.0465 
1.03533 1.00929 1.04696 
1.03503 1.00675 1.04514 
1.03546 1.00654 1.04511 
1.03273 1.00888 1.04599 
1.03144 1.01081 1.04701 
1.03259 1.00882 1.04591 
1.03131 1.0075 1.04469 
1.02986 1.00804 1.0447 
1.02998 1.01097 1.04676 
1.0381 1.01111 1.04895 
1.03814 1.01222 1.04972 
1.03514 1.01349 1.04978 
1.03448 1.01123 1.04804 
1.0319 1.01413 1.04944 
1.03239 1.014 1.04946 
1.03125 1.01189 1.04772 
1.03064 1.01299 1.04833 
1.03362 1.00602 1.04425 
1.034 1.00499 1.04365 
1.03284 1.00434 1.04288 
1.0347 1.00256 1.04219 
1.03518 1.00165 1.04171 
1.03379 1.00313 1.04233 
1.03335 1.00162 1.04117 
1.03203 0.999817 1.03957 
1.03329 0.998452 1.039 
1.03504 0.998912 1.03981 
1.03236 1.00646 1.04422 
1.02974 1.00756 1.04434 
1.02972 1.00675 1.04377 
1.03216 1.00461 1.04289 
1.0302 1.00397 1.04196 
1.03265 1.00489 1.04321 
1.02863 1.00136 1.03975 
1.02918 1.00258 1.04074 
1.02986 1.00022 1.03928 
1.03061 1.0005 1.03966 
1.03738 1.00276 1.0431 
1.03665 1.00242 1.04265 
1.0383 1.00052 1.04189 
1.03869 1.00234 1.04322 
1.03905 1.0016 1.04283 
1.03888 1.00127 1.04257 
1.04139 0.999305 1.04207 
1.04108 1.00148 1.04339 
1.04378 0.99924 1.04281 
1.04177 1.00227 1.04414 
1.04195 1.00259 1.04441 
1.03571 0.998403 1.03968 
1.03562 0.999708 1.04052 
1.0375 0.999943 1.04126 
1.03781 0.997065 1.03943 
1.03731 0.99824 1.04007 
1.04028 0.997295 1.04039 
1.0407 0.996393 1.03994 
1.04216 0.995838 1.04006 
1.04226 0.99723 1.041 
1.04153 1.0046 1.04559 
1.0401 1.00376 1.0446 
1.04049 1.00756 1.04726 
1.03835 1.00632 1.04578 
1.04041 1.00775 1.04736 
1.04134 1.00769 1.0476 
1.04124 1.00816 1.04788 
1.03936 1.00951 1.04822 
1.04358 1.01005 1.04985 
1.039 1.00983 1.04833 
1.04537 1.00339 1.04605 
1.04333 1.0021 1.04454 
1.04216 1.0059 1.04665 
1.04363 1.00559 1.04692 
1.04264 1.00638 1.04712 
1.04763 1.00793 1.04976 
1.04532 1.0056 1.04748 
1.04375 1.00805 1.04858 
1.04394 1.00823 1.04876 
1.02135 1.01102 1.04511 
1.02148 1.01048 1.04474 
1.01842 1.0115 1.04502 
1.01868 1.01227 1.04561 
1.01836 1.01318 1.04623 
1.01705 1.01456 1.04706 
1.01747 1.01332 1.04621 
1.01467 1.01235 1.04518 
1.01662 1.01189 1.04507 
1.02154 1.01488 1.04792 
1.02147 1.01539 1.04827 
1.02173 1.01418 1.04744 
1.02093 1.01492 1.04786 
1.01791 1.01593 1.04815 
1.01564 1.01753 1.04905 
1.01592 1.01715 1.0488 
1.01645 1.0162 1.04818 
1.01799 1.00921 1.0433 
1.01979 1.01039 1.04442 
1.02035 1.00976 1.04405 
1.02125 1.00876 1.04347 
1.0205 1.00767 1.04257 
1.02096 1.00832 1.04311 
1.01932 1.00575 1.04101 
1.01966 1.00605 1.04128 
1.01966 1.00493 1.04047 
1.01969 1.00327 1.03928 
1.01464 1.011 1.0442 
1.0144 1.00782 1.04186 
1.01758 1.00938 1.04337 
1.01692 1.00926 1.0432 
1.01522 1.00623 1.04081 
1.01725 1.00655 1.04129 
1.01521 1.00371 1.03898 
1.01743 1.00497 1.04016 
1.02319 1.00574 1.04167 
1.02432 1.0053 1.04156 
1.02416 1.00802 1.04347 
1.024 1.00767 1.04319 
1.02496 1.00631 1.0424 
1.02675 1.00659 1.04299 
1.02875 1.00619 1.04314 
1.02837 1.00594 1.04288 
1.02736 1.00806 1.04415 
1.02346 1.0023 1.03927 
1.0229 1.00276 1.03949 
1.02374 1.00314 1.03992 
1.02307 1.00361 1.04013 
1.02736 1.00093 1.03914 
1.02549 1.0045 1.04124 
1.02652 1.00302 1.04043 
1.02422 1.00994 1.04485 
1.02491 1.01026 1.0452 
1.02506 1.00942 1.04463 
1.0238 1.0121 1.04631 
1.02342 1.01187 1.04608 
1.02458 1.01513 1.04862 
1.02289 1.01396 1.04748 
1.02465 1.01658 1.04966 
1.0227 1.01486 1.04809 
1.02742 1.00898 1.04482 
1.02919 1.00981 1.04578 
1.02653 1.01007 1.04539 
1.02779 1.01154 1.04669 
1.03026 1.01328 1.04845 
1.02994 1.0129 1.04811 
1.02763 1.01444 1.04871 
1.02864 1.01582 1.0499 
1.00525 1.01514 1.04655 
1.00632 1.01438 1.04605 
1.00579 1.01268 1.04479 
1.00407 1.0133 1.04518 
1.00257 1.01445 1.04598 
1.00194 1.01466 1.04612 
1.0002 1.01303 1.04491 
1.0008 1.0141 1.04569 
1.00431 1.01948 1.04966 
1.00434 1.01885 1.04921 
1.00359 1.01638 1.04739 
1.00486 1.01651 1.04753 
1.00142 1.01843 1.04884 
1.00078 1.0191 1.04931 
0.99984 1.01807 1.04855 
1.00082 1.01793 1.04846 
1.00505 1.01204 1.0443 
1.00596 1.01197 1.04428 
1.00631 1.01211 1.0444 
1.00657 1.00929 1.04236 
1.00649 1.00815 1.04154 
1.00668 1.00792 1.04138 
1.00569 1.00803 1.04142 
1.00706 1.00593 1.03995 
1.00141 1.01002 1.04276 
1.00137 1.01185 1.04408 
1.00152 1.0086 1.04173 
1.00169 1.00931 1.04225 
1.00249 1.00717 1.04071 
1.00054 1.00548 1.03945 
1.00121 1.00506 1.03916 
1.00101 1.00476 1.03894 
1.00825 1.00951 1.04261 
1.00734 1.00879 1.04203 
1.01002 1.0105 1.04343 
1.01057 1.00939 1.04266 
1.01251 1.00838 1.04209 
1.01089 1.00946 1.04274 
1.01339 1.01082 1.04395 
1.01256 1.0096 1.04299 
1.00948 1.00548 1.03976 
1.00792 1.00696 1.04074 
1.01065 1.00565 1.03995 
1.00834 1.00729 1.041 
1.01311 1.00395 1.03893 
1.0126 1.00499 1.03964 
1.01314 1.00676 1.04098 
1.01302 1.00517 1.03981 
1.00881 1.01324 1.04535 
1.00978 1.01454 1.04635 
1.01019 1.01316 1.04537 
1.00875 1.01383 1.04577 
1.0081 1.01544 1.0469 
1.00829 1.01638 1.0476 
1.00793 1.01792 1.04869 
1.00779 1.01754 1.04841 
1.01186 1.01201 1.04467 
1.01413 1.01446 1.04665 
1.01198 1.01538 1.04713 
1.01079 1.0135 1.04566 
1.01147 1.01616 1.04765 
1.01412 1.01567 1.04753 
1.01342 1.01822 1.04932 
1.01357 1.01824 1.04934 
0.996243 1.01364 1.04535 
0.995799 1.01508 1.0464 
0.993034 1.01344 1.04526 
0.9931 1.01354 1.04533 
0.995561 1.01626 1.04725 
0.995683 1.01805 1.04854 
0.992626 1.01654 1.04751 
0.994883 1.01859 1.04895 
0.998305 1.01354 1.04527 
0.998398 1.01404 1.04564 
0.997308 1.01578 1.0469 
0.996498 1.01424 1.04578 
0.998114 1.0163 1.04727 
0.998376 1.01802 1.04851 
0.99815 1.01902 1.04923 
0.996667 1.01829 1.04871 
0.991462 1.01473 1.04625 
0.990134 1.01535 1.04675 
0.989903 1.0131 1.04513 
0.989483 1.01312 1.04516 
0.990085 1.01264 1.0448 
0.987866 1.0148 1.04647 
0.986939 1.01446 1.04629 
0.986827 1.01348 1.04558 
0.986859 1.01267 1.045 
0.99059 1.01791 1.04859 
0.990602 1.01817 1.04877 
0.988976 1.01802 1.04873 
0.988744 1.01755 1.0484 
0.988106 1.01808 1.04882 
0.987854 1.01856 1.04919 
0.985693 1.01761 1.04864 
0.98521 1.0172 1.04838 
0.992878 1.01194 1.04418 
0.990314 1.00952 1.04252 
0.992149 1.0109 1.04345 
0.992734 1.00809 1.04141 
0.992576 1.01067 1.04327 
0.989935 1.00676 1.04055 
0.99238 1.00748 1.04097 
0.992878 1.00489 1.03909 
0.99168 1.00514 1.03931 
0.987265 1.00997 1.04302 
0.98855 1.01144 1.044 
0.988603 1.01027 1.04315 
0.987578 1.00764 1.04132 
0.987014 1.00515 1.03954 
0.987397 1.00577 1.03997 
0.988533 1.00589 1.03998 
0.988469 1.00534 1.03959 
0.993655 1.00861 1.04175 
0.99399 1.00867 1.0418 
0.995775 1.01206 1.04421 
0.99573 1.01104 1.04348 
0.997092 1.01041 1.04301 
0.997236 1.01037 1.04298 
1.00007 1.0113 1.04366 
0.997848 1.01154 1.04383 
0.993615 1.00748 1.04094 
0.994243 1.00624 1.04003 
0.993841 1.008 1.04131 
0.99629 1.00809 1.04134 
0.999391 1.00483 1.03898 
0.99833 1.00585 1.03971 
1.00009 1.00539 1.03939 
1.00019 1.00549 1.03946 
0.89749 0.964241 1.02304 
0.897928 0.964023 1.02407 
0.896594 0.964274 1.02299 
0.896992 0.963966 1.0242 
0.896267 0.964142 1.02396 
0.893696 0.965199 1.02345 
0.901065 0.96641 1.02053 
0.901963 0.9666 1.02129 
0.902516 0.967072 1.02077 
0.900522 0.967057 1.01791 
0.900934 0.967 1.01867 
0.901636 0.965939 1.02269 
0.902887 0.966515 1.02288 
0.903071 0.96633 1.02367 
0.900602 0.965105 1.02361 
0.901481 0.96515 1.0247 
0.900341 0.965775 1.02132 
0.899714 0.966294 1.01895 
0.906428 0.969206 1.02048 
0.907677 0.969781 1.02065 
0.908793 0.971448 1.01754 
0.906148 0.970256 1.01711 
0.906497 0.970143 1.01793 
0.907496 0.970812 1.01748 
0.906835 0.969278 1.02086 
0.908404 0.968636 1.02494 
0.90838 0.968372 1.02565 
0.909352 0.970586 1.02078 
0.909211 0.969938 1.02241 
0.909086 0.969344 1.02391 
0.909327 0.969018 1.02518 
0.906131 0.968572 1.02183 
0.905282 0.968198 1.02166 
0.9037 0.967276 1.02194 
0.904718 0.966613 1.02529 
0.904238 0.966415 1.02515 
0.906105 0.969225 1.01995 
0.90397 0.9694 1.01636 
0.9038 0.967692 1.02092 
0.913952 0.973551 1.01884 
0.914487 0.974123 1.01795 
0.914693 0.973644 1.01958 
0.916341 0.97514 1.01755 
0.917676 0.97601 1.01683 
0.91314 0.974388 1.01536 
0.913776 0.974412 1.01616 
0.915784 0.976426 1.01315 
0.917622 0.976555 1.0152 
0.916103 0.973449 1.02204 
0.914252 0.972894 1.02112 
0.915881 0.972855 1.02343 
0.915093 0.971921 1.02503 
0.917013 0.974576 1.02004 
0.918111 0.974168 1.02265 
0.918257 0.97352 1.02469 
0.917437 0.972629 1.02617 
0.913674 0.972731 1.02078 
0.912438 0.972093 1.02088 
0.911688 0.971414 1.02175 
0.91195 0.970051 1.02597 
0.911785 0.970614 1.02415 
0.912162 0.97231 1.01987 
0.913686 0.973273 1.01927 
0.910776 0.973335 1.01504 
0.912443 0.974441 1.01424 
0.910673 0.971839 1.01911 
0.911053 0.972355 1.01819 
0.910298 0.972531 1.01662 
0.908717 0.972416 1.0147 
0.923813 0.979449 1.01472 
0.924844 0.978525 1.01868 
0.926289 0.980654 1.01451 
0.926915 0.98007 1.01698 
0.922318 0.97899 1.01414 
0.923982 0.979622 1.01444 
0.924951 0.98079 1.01236 
0.926626 0.981138 1.01358 
0.925454 0.977909 1.02122 
0.92565 0.977572 1.02243 
0.923895 0.977014 1.0218 
0.926626 0.977044 1.02518 
0.924684 0.976301 1.02485 
0.927798 0.97916 1.02073 
0.926633 0.979064 1.01946 
0.927299 0.978198 1.02279 
0.92731 0.978039 1.02326 
0.927339 0.977068 1.02604 
0.923651 0.976553 1.02282 
0.922447 0.976902 1.02031 
0.920847 0.975243 1.02307 
0.919974 0.974962 1.02278 
0.919756 0.975607 1.02064 
0.92406 0.976344 1.02393 
0.9242 0.976086 1.02485 
0.921741 0.975419 1.02369 
0.921327 0.97472 1.02518 
0.919587 0.974003 1.02505 
0.921115 0.977193 1.0178 
0.92191 0.97843 1.01523 
0.920745 0.978358 1.01398 
0.921574 0.979309 1.01228 
0.918486 0.976185 1.01737 
0.9189 0.976327 1.01748 
0.918668 0.976548 1.01656 
0.918018 0.976923 1.01465 
0.919472 0.977843 1.01386 
0.934047 0.984654 1.01449 
0.932614 0.983695 1.01497 
0.93376 0.983961 1.01595 
0.934864 0.985288 1.01398 
0.935736 0.985231 1.01544 
0.936878 0.985808 1.01558 
0.932212 0.984181 1.01306 
0.933699 0.985141 1.01265 
0.934987 0.986562 1.01071 
0.935826 0.986468 1.01222 
0.936004 0.986431 1.01259 
0.935795 0.983367 1.02057 
0.934524 0.983397 1.01861 
0.935524 0.982511 1.0225 
0.935685 0.982183 1.02363 
0.936363 0.982247 1.02446 
0.934945 0.981345 1.02481 
0.936181 0.981528 1.02614 
0.937472 0.98472 1.01942 
0.937734 0.983687 1.0226 
0.938628 0.983113 1.02549 
0.936845 0.982531 1.0244 
0.931973 0.980967 1.02151 
0.931978 0.981618 1.01974 
0.930613 0.980479 1.02091 
0.930516 0.980612 1.02041 
0.929486 0.980524 1.01922 
0.932804 0.979567 1.02656 
0.933329 0.980675 1.02427 
0.932716 0.980686 1.02336 
0.931003 0.97921 1.02498 
0.929625 0.977901 1.0267 
0.929376 0.978681 1.02419 
0.931121 0.981724 1.0182 
0.932414 0.982536 1.01785 
0.931045 0.982914 1.01483 
0.930195 0.982719 1.01414 
0.930113 0.983452 1.01201 
0.930534 0.983656 1.01206 
0.92943 0.983649 1.01048 
0.928088 0.980104 1.01844 
0.927933 0.98038 1.01746 
0.929913 0.981647 1.01669 
0.927018 0.981651 1.01265 
0.929345 0.982857 1.01254 
0.94271 0.989323 1.01461 
0.943254 0.989445 1.01503 
0.944634 0.989909 1.0157 
0.944001 0.989947 1.01471 
0.945511 0.990678 1.01473 
0.944868 0.989693 1.01662 
0.94706 0.991451 1.01464 
0.94696 0.990444 1.01731 
0.942519 0.990681 1.0106 
0.943281 0.991579 1.00921 
0.94352 0.99154 1.00965 
0.943242 0.99062 1.01179 
0.945317 0.9923 1.00995 
0.945744 0.992728 1.00933 
0.946752 0.991959 1.01282 
0.94544 0.991835 1.01141 
0.944938 0.988089 1.02113 
0.942989 0.987593 1.01976 
0.943825 0.987558 1.02103 
0.945794 0.987118 1.02501 
0.944597 0.986917 1.02388 
0.944385 0.985727 1.02685 
0.944501 0.986417 1.02512 
0.946511 0.989759 1.01862 
0.945268 0.989086 1.01885 
0.947077 0.988439 1.02306 
0.946346 0.987382 1.02503 
0.946938 0.987456 1.02561 
0.942249 0.986293 1.02222 
0.942908 0.98717 1.0208 
0.940871 0.986636 1.01928 
0.939303 0.984819 1.02188 
0.938602 0.985457 1.01911 
0.93844 0.984804 1.02063 
0.942052 0.984765 1.0261 
0.943367 0.986288 1.02387 
0.942377 0.98584 1.02365 
0.940218 0.983902 1.02572 
0.941371 0.984464 1.02592 
0.939174 0.983694 1.02473 
0.939571 0.987689 1.01451 
0.940152 0.986752 1.01791 
0.94119 0.988227 1.01541 
0.941539 0.989036 1.01372 
0.940439 0.988857 1.0126 
0.94035 0.989734 1.01008 
0.937904 0.985765 1.01723 
0.937189 0.986326 1.01465 
0.938463 0.986945 1.01487 
0.938179 0.987666 1.0125 
0.937877 0.987243 1.01319 
0.937324 0.988189 1.0098 
0.938483 0.987946 1.01219 
0.953427 0.994675 1.01302 
0.954039 0.994482 1.01425 
0.955334 0.994446 1.01579 
0.954483 0.994152 1.01569 
0.956446 0.994581 1.0166 
0.956148 0.995156 1.01462 
0.956749 0.994348 1.0176 
0.957913 0.995309 1.01605 
0.953756 0.995761 1.01025 
0.953591 0.996188 1.00884 
0.953772 0.995712 1.01041 
0.954613 0.99552 1.01189 
0.957377 0.997649 1.00871 
0.957959 0.997738 1.00907 
0.95738 0.996339 1.0125 
0.955294 0.993091 1.01965 
0.955338 0.992726 1.02075 
0.955221 0.992299 1.02185 
0.954956 0.992455 1.02111 
0.955743 0.991364 1.02512 
0.954859 0.990534 1.02654 
0.955712 0.991139 1.02573 
0.957956 0.994236 1.0192 
0.957714 0.994281 1.01882 
0.957331 0.993414 1.02092 
0.956652 0.993552 1.0198 
0.959534 0.993029 1.02437 
0.959193 0.993228 1.02344 
0.957318 0.992034 1.02491 
0.959106 0.99217 1.02641 
0.953135 0.991228 1.02259 
0.952849 0.991699 1.02092 
0.951134 0.991075 1.02071 
0.951006 0.991465 1.01944 
0.950113 0.989932 1.02272 
0.949624 0.99004 1.02181 
0.949163 0.990912 1.01878 
0.953059 0.989883 1.02636 
0.951916 0.989675 1.02563 
0.950657 0.989482 1.02467 
0.949497 0.989552 1.02304 
0.951989 0.992991 1.01622 
0.952643 0.993096 1.01668 
0.951526 0.993309 1.01477 
0.951105 0.993873 1.01267 
0.950232 0.994359 1.01026 
0.952068 0.994785 1.01118 
0.947595 0.991773 1.0144 
0.94868 0.991173 1.01744 
0.948539 0.992736 1.01284 
0.949388 0.992268 1.01522 
0.946715 0.992399 1.01153 
0.947522 0.992326 1.01274 
0.94928 0.993573 1.01139 
0.949046 0.99377 1.01055 
0.965631 0.998446 1.01466 
0.966149 0.998424 1.01519 
0.966175 0.999066 1.01333 
0.967038 0.99889 1.01463 
0.967214 0.998978 1.01452 
0.969054 1.00012 1.01269 
0.968569 0.999564 1.01397 
0.969892 0.999273 1.0159 
0.96995 0.998973 1.01684 
0.965567 1.00044 1.00874 
0.965531 1.00047 1.00862 
0.965768 0.999722 1.01102 
0.965639 0.999308 1.01213 
0.967971 0.999977 1.01226 
0.969138 1.00168 1.00811 
0.970243 1.00065 1.0121 
0.969671 1.00035 1.01251 
0.967152 0.997212 1.01968 
0.968062 0.997221 1.02048 
0.967743 0.996834 1.02133 
0.96638 0.996062 1.02237 
0.969009 0.996176 1.02442 
0.968788 0.995641 1.02579 
0.966255 0.995478 1.02398 
0.970327 0.998306 1.01914 
0.97123 0.997944 1.02094 
0.969977 0.997338 1.02174 
0.969927 0.997296 1.02182 
0.971794 0.997024 1.02414 
0.970496 0.996918 1.02341 
0.970654 0.996113 1.02593 
0.970119 0.995893 1.02616 
0.964105 0.995756 1.02109 
0.964804 0.995567 1.02233 
0.962902 0.995491 1.02069 
0.962641 0.995163 1.02139 
0.961392 0.995184 1.02004 
0.961782 0.995168 1.0205 
0.959651 0.994886 1.01911 
0.959887 0.994242 1.02122 
0.965284 0.994366 1.02632 
0.964671 0.995161 1.02339 
0.96079 0.99273 1.02655 
0.961119 0.99359 1.02439 
0.960462 0.99325 1.0247 
0.961796 0.997541 1.01361 
0.962262 0.99669 1.01655 
0.963391 0.99761 1.01497 
0.964202 0.998421 1.0134 
0.961534 0.998934 1.00928 
0.96224 0.998292 1.01185 
0.963621 0.999522 1.00961 
0.963799 0.999945 1.00855 
0.959217 0.996427 1.01418 
0.95882 0.996515 1.01352 
0.961433 0.996957 1.01494 
0.961581 0.997446 1.01367 
0.961067 0.997787 1.01215 
0.960018 0.997282 1.01253 
0.960833 0.99807 1.01108 
0.96081 0.999057 1.00819 
0.980351 1.0022 1.01378 
0.980924 1.00261 1.0128 
0.97949 1.00117 1.01648 
0.981341 1.00212 1.01448 
0.982336 1.00187 1.01575 
0.984025 1.00298 1.01302 
0.985049 1.00288 1.01374 
0.983375 1.0018 1.01639 
0.984673 1.0016 1.01753 
0.985945 1.00173 1.01762 
0.980296 1.00395 1.00841 
0.979338 1.00358 1.00907 
0.981841 1.00394 1.00918 
0.982073 1.00341 1.0109 
0.982387 1.00435 1.00816 
0.983469 1.00362 1.01082 
0.984192 1.0033 1.01212 
0.984102 1.0035 1.01146 
0.982403 0.999918 1.02174 
0.982559 1.00001 1.02152 
0.979196 1.00014 1.01949 
0.98016 0.999295 1.02255 
0.980365 0.999216 1.02289 
0.981287 0.999017 1.02395 
0.979545 0.998861 1.02357 
0.979544 0.997925 1.02643 
0.98644 1.00065 1.02114 
0.983284 1.00113 1.0184 
0.985959 1.00064 1.02098 
0.984696 1.00054 1.02078 
0.985109 1.0004 1.02137 
0.982834 1.00019 1.02113 
0.984114 0.999362 1.02416 
0.986055 0.999128 1.02565 
0.984361 0.998994 1.02539 
0.983482 0.99871 1.02591 
0.978796 0.9994 1.02153 
0.976779 0.998786 1.02221 
0.976469 1.00009 1.01808 
0.975556 0.999993 1.01783 
0.974479 0.998159 1.02264 
0.974396 0.998448 1.02171 
0.972778 0.999219 1.01827 
0.972153 0.998388 1.02034 
0.978538 0.99777 1.02633 
0.97901 0.997819 1.02646 
0.978118 0.99869 1.02329 
0.977124 0.998075 1.02457 
0.975331 0.997239 1.026 
0.974003 0.996943 1.02597 
0.972781 0.997511 1.02342 
0.972332 0.997228 1.02396 
0.976773 1.00039 1.01733 
0.975077 1.00104 1.01436 
0.978397 1.00181 1.01398 
0.978249 1.00104 1.01623 
0.974643 1.00299 1.00821 
0.976708 1.00248 1.01096 
0.976516 1.00318 1.00871 
0.977264 1.00289 1.01004 
0.973781 1.00026 1.01583 
0.971864 0.999274 1.01748 
0.974128 1.00125 1.0131 
0.974004 1.00106 1.01357 
0.973153 1.00075 1.01392 
0.971507 1.0018 1.00961 
0.971591 1.00168 1.01005 
0.97314 1.00242 1.00889 
0.972853 1.00196 1.01007 
1.10205 0.908158 1.02504 
1.10259 0.907008 1.02494 
1.09365 0.913959 1.02707 
1.09377 0.914051 1.0258 
1.09752 0.913451 1.02564 
1.09635 0.913712 1.02674 
1.08933 0.917386 1.02737 
1.08691 0.923515 1.02581 
1.08794 0.920577 1.02681 
1.08498 0.928012 1.02808 
1.08538 0.927753 1.02604 
1.08559 0.927031 1.02592 
1.08493 0.929125 1.02678 
1.08516 0.928146 1.02644 
1.086 0.926074 1.02558 
1.08542 0.925933 1.02762 
1.08491 0.932728 1.02684 
1.08474 0.930421 1.02775 
1.08327 0.943886 1.02755 
1.08456 0.940574 1.02555 
1.0848 0.937003 1.02664 
1.08513 0.936973 1.02558 
1.08441 0.93868 1.0274 
1.08203 0.94827 1.0282 
1.08182 0.949072 1.02854 
1.08222 0.948643 1.02685 
1.08151 0.950337 1.02745 
1.08168 0.950318 1.02694 
1.08256 0.946736 1.02743 
1.0828 0.947472 1.02605 
1.07377 0.959843 1.03163 
1.07472 0.959195 1.02968 
1.07614 0.958328 1.02825 
1.07681 0.957246 1.02901 
1.07837 0.955713 1.02834 
1.07772 0.956072 1.02934 
1.07807 0.95665 1.02723 
1.0789 0.95575 1.02697 
1.0797 0.953428 1.02918 
1.07866 0.954956 1.02915 
1.07927 0.954204 1.0289 
1.07904 0.954963 1.02802 
1.07994 0.954465 1.02659 
1.08121 0.950722 1.02804 
1.08121 0.950672 1.0289 
1.06574 0.967348 1.03209 
1.06795 0.965404 1.03269 
1.06647 0.966665 1.03263 
1.06687 0.966713 1.03053 
1.0679 0.966328 1.02902 
1.06704 0.968015 1.02711 
1.06884 0.965884 1.02795 
1.06514 0.968508 1.03013 
1.06435 0.970493 1.02728 
1.06551 0.968454 1.02942 
1.06623 0.968336 1.02814 
1.06997 0.963758 1.03029 
1.07212 0.9619 1.02952 
1.06943 0.964799 1.02907 
1.07081 0.963482 1.02893 
1.07143 0.962888 1.02887 
1.07222 0.961959 1.02913 
1.06955 0.963795 1.03156 
1.06933 0.964159 1.03262 
1.0724 0.961068 1.03178 
1.0713 0.962462 1.03262 
1.05519 0.976765 1.03229 
1.05244 0.979009 1.03268 
1.05182 0.979541 1.03242 
1.05279 0.978872 1.03329 
1.0551 0.976941 1.03171 
1.05636 0.976358 1.03033 
1.0555 0.977741 1.02875 
1.05607 0.977419 1.02836 
1.0529 0.97892 1.03127 
1.05204 0.979855 1.0306 
1.05147 0.980899 1.02912 
1.05252 0.979941 1.02937 
1.05273 0.980479 1.02767 
1.05798 0.974827 1.0307 
1.06046 0.972786 1.03024 
1.06274 0.970799 1.02999 
1.06266 0.970344 1.03143 
1.05817 0.975351 1.02899 
1.05967 0.974093 1.02881 
1.06079 0.973484 1.02792 
1.06159 0.972203 1.02918 
1.06302 0.970706 1.0296 
1.06309 0.970933 1.02895 
1.05908 0.97339 1.03234 
1.05886 0.973577 1.03243 
1.06022 0.972549 1.03329 
1.06227 0.970525 1.03232 
1.0607 0.971913 1.03285 
1.06307 0.969873 1.03301 
1.06152 0.971367 1.03323 
1.04345 0.985539 1.03282 
1.03943 0.987999 1.03217 
1.0408 0.98717 1.03303 
1.04383 0.985574 1.03127 
1.044 0.985709 1.03052 
1.04267 0.986941 1.02942 
1.04437 0.986276 1.02835 
1.04073 0.987512 1.03112 
1.03933 0.988877 1.02946 
1.04223 0.987693 1.02816 
1.04488 0.984722 1.03183 
1.04902 0.982111 1.03084 
1.04528 0.985345 1.02926 
1.04797 0.984035 1.02784 
1.04853 0.983142 1.02908 
1.04988 0.981761 1.02997 
1.04691 0.983255 1.03242 
1.04555 0.984461 1.03359 
1.02965 0.992728 1.03282 
1.02897 0.993033 1.03241 
1.02835 0.993277 1.03313 
1.02997 0.992877 1.03116 
1.03103 0.992583 1.0306 
1.02971 0.993632 1.02914 
1.03182 0.992677 1.02926 
1.03178 0.992765 1.02905 
1.02852 0.993412 1.03133 
1.02665 0.995247 1.02787 
1.02799 0.994171 1.0295 
1.02957 0.994073 1.02804 
1.0337 0.991354 1.03068 
1.03555 0.990383 1.03093 
1.03687 0.98994 1.03014 
1.03686 0.989525 1.03153 
1.03393 0.992203 1.02788 
1.0349 0.991278 1.02917 
1.03592 0.991293 1.02775 
1.03733 0.99058 1.0277 
1.03636 0.990263 1.02999 
1.03547 0.990088 1.03247 
1.0365 0.989589 1.03203 
1.03747 0.989051 1.0331 
1.01611 0.99681 1.0321 
1.01849 0.9964 1.03332 
1.01663 0.99693 1.03364 
1.01993 0.996402 1.03053 
1.01829 0.996945 1.02991 
1.01835 0.997703 1.02756 
1.01575 0.996897 1.03187 
1.01503 0.997464 1.03025 
1.01504 0.997693 1.02952 
1.01538 0.998326 1.0274 
1.02042 0.996281 1.03051 
1.02227 0.995415 1.0318 
1.02464 0.994918 1.03096 
1.02522 0.994562 1.03154 
1.02201 0.996616 1.02812 
1.02287 0.996121 1.02891 
1.02462 0.996055 1.02747 
1.02638 0.995387 1.02774 
1.0223 0.995371 1.03318 
1.02149 0.995832 1.03373 
1.02511 0.994429 1.03305 
1.00467 0.997972 1.03276 
1.00238 0.998063 1.03212 
1.00623 0.998012 1.03337 
1.00501 0.998159 1.03357 
1.00294 0.998282 1.03372 
1.00557 0.998118 1.03144 
1.00531 0.998453 1.03025 
1.00527 0.99854 1.02997 
1.00739 0.999253 1.02744 
1.00576 0.999088 1.0282 
1.00313 0.998442 1.03055 
1.00218 0.998739 1.02961 
1.00404 0.999265 1.02788 
1.00803 0.998022 1.03128 
1.00993 0.997993 1.03077 
1.01274 0.997505 1.03136 
1.00765 0.998476 1.0298 
1.00939 0.998228 1.03009 
1.01127 0.99885 1.0276 
1.01188 0.998551 1.02828 
1.0136 0.998267 1.02847 
1.01332 0.997212 1.0329 
0.997376 0.998137 1.03335 
0.998741 0.998026 1.03265 
0.998095 0.998038 1.0331 
0.991375 0.997726 1.03209 
0.987217 0.997349 1.03294 
0.99286 0.997904 1.03162 
0.993393 0.998031 1.03129 
0.992714 0.99847 1.02958 
0.993559 0.99915 1.02766 
0.98775 0.997486 1.03153 
0.990263 0.998087 1.03025 
0.987321 0.998416 1.02829 
0.990289 0.998916 1.02766 
0.994217 0.998108 1.0312 
0.99689 0.998105 1.03164 
0.999945 0.99848 1.03048 
0.99417 0.998602 1.02948 
0.996287 0.998678 1.02953 
0.998692 0.998957 1.02888 
1.00084 0.999019 1.02879 
0.999779 0.998993 1.02882 
0.981524 1.00622 1.00265 
0.985105 1.00693 1.0022 
0.984919 1.0077 1.00141 
0.978826 1.00552 1.00314 
0.979093 1.00523 1.00404 
0.981964 1.00508 1.00576 
0.979661 1.00434 1.00689 
0.978679 1.00464 1.00549 
0.98383 1.00611 1.00353 
0.984193 1.00585 1.00436 
0.986101 1.00498 1.0077 
0.985564 1.00481 1.008 
0.974974 1.00411 1.00501 
0.976547 1.00498 1.00347 
0.97271 1.00371 1.00475 
0.97125 1.00381 1.0036 
0.975915 1.00357 1.00719 
0.976541 1.00387 1.00663 
0.976508 1.00414 1.00579 
0.977177 1.00445 1.00525 
0.972299 1.00263 1.00766 
0.971405 1.00324 1.00522 
0.975279 1.00495 1.00298 
0.975815 1.00534 1.00247 
0.976706 1.00618 1.00168 
0.970703 1.00424 1.00247 
0.972225 1.0048 1.00209 
0.971575 1.005 1.00177 
0.965848 1.00298 1.00232 
0.964121 1.00201 1.00309 
0.969344 1.00409 1.0021 
0.969906 1.00389 1.00271 
0.966357 1.00337 1.00198 
0.970006 1.00478 1.00165 
0.964967 1.00223 1.00317 
0.965587 1.00193 1.00443 
0.966823 1.00169 1.00616 
0.965011 1.00081 1.00712 
0.969907 1.00349 1.00356 
0.967521 1.0025 1.00446 
0.970726 1.00224 1.00773 
0.969261 1.00201 1.00724 
0.96272 1.00114 1.00412 
0.959175 0.999789 1.00446 
0.963709 1.00083 1.00587 
0.961158 1.00014 1.0054 
0.960242 0.998988 1.00781 
0.959891 0.999668 1.00547 
0.96138 1.00214 1.00171 
0.962773 1.00247 1.00181 
0.960047 1.00136 1.00198 
0.952425 0.998471 1.00218 
0.951747 0.997415 1.0035 
0.953016 0.997023 1.0058 
0.951671 0.996218 1.00662 
0.956566 0.999093 1.00384 
0.955718 0.998193 1.00536 
0.956452 0.997685 1.00762 
0.950779 0.996687 1.00437 
0.948765 0.995662 1.00489 
0.946956 0.995319 1.0038 
0.951247 0.996027 1.00668 
0.949181 0.99473 1.00798 
0.949933 0.995534 1.00656 
0.948178 0.994358 1.00781 
0.945989 0.994064 1.00592 
0.95044 0.996932 1.00342 
0.948783 0.997134 1.0022 
0.941561 0.991649 1.00659 
0.940694 0.991281 1.00638 
0.944937 0.994419 1.00379 
0.945307 0.993188 1.00747 
0.944635 0.992908 1.00735 
0.939506 0.991026 1.00542 
0.938035 0.990356 1.00515 
0.937016 0.989481 1.00591 
0.937187 0.990054 1.00476 
0.939162 0.989514 1.00894 
0.938761 0.989986 1.00707 
0.938063 0.989204 1.00816 
0.9368 0.989133 1.00647 
0.939047 0.991595 1.00374 
0.938715 0.991893 1.00312 
0.936128 0.989872 1.00407 
0.935575 0.990274 1.00329 
0.936941 0.990948 1.00325 
0.93466 0.989128 1.00403 
0.932624 0.986818 1.00653 
0.933033 0.986844 1.00703 
0.931957 0.985677 1.00861 
0.93416 0.98815 1.00535 
0.934334 0.987792 1.00643 
0.933996 0.987504 1.00668 
0.934019 0.986689 1.00892 
0.929131 0.984828 1.00686 
0.928064 0.984749 1.0057 
0.926237 0.983468 1.00663 
0.930209 0.984643 1.00888 
0.928953 0.983925 1.00903 
0.927059 0.982706 1.00977 
0.92648 0.982856 1.00855 
0.928268 0.985069 1.00529 
0.925693 0.983748 1.00549 
0.925747 0.98432 1.00475 
0.924084 0.98318 1.0053 
0.922678 0.982672 1.00538 
0.922323 0.981611 1.00683 
0.921675 0.981021 1.00761 
0.92325 0.981124 1.00921 
0.922592 0.980662 1.00969 
0.925195 0.983207 1.00606 
0.926137 0.982213 1.00989 
0.924188 0.98169 1.0088 
0.919653 0.980098 1.00776 
0.918801 0.979287 1.0089 
0.920612 0.979785 1.00971 
0.921014 0.980241 1.0089 
0.917474 0.978122 1.01051 
0.918851 0.979908 1.00744 
0.919649 0.980575 1.0068 
0.914141 0.97764 1.00828 
0.914091 0.976124 1.01174 
0.913168 0.975409 1.0125 
0.915838 0.977601 1.0099 
0.917027 0.977396 1.01203 
0.915279 0.976677 1.01176 
0.910839 0.974966 1.01067 
0.910345 0.973718 1.01335 
0.910391 0.974763 1.01065 
0.908046 0.973898 1.01068 
0.908194 0.974172 1.01045 
0.90581 0.972318 1.01178 
0.90587 0.97081 1.01514 
0.906782 0.972261 1.01248 
0.906334 0.972022 1.01253 
0.904934 0.970419 1.01489 
0.902439 0.968563 1.01647 
0.900607 0.968627 1.01451 
0.900549 0.967476 1.01677 
0.899734 0.966859 1.01735 
0.898018 0.966356 1.01673 
0.893666 0.965688 1.02012 
0.893118 0.965857 1.02078 
0.896933 0.965862 1.01721 
0.89767 0.96575 1.01799 
1.10195 0.90915 1.02398 
1.10283 0.90837 1.02255 
1.10288 0.908766 1.02195 
1.10375 0.906434 1.0234 
1.10001 0.912223 1.02349 
1.09857 0.913422 1.02358 
1.09972 0.912908 1.02255 
1.10003 0.913112 1.02122 
1.10141 0.910167 1.02378 
1.09641 0.914668 1.01939 
1.09473 0.914653 1.01906 
1.09502 0.914686 1.01887 
1.09134 0.914492 1.02515 
1.09437 0.914648 1.01883 
1.09268 0.914281 1.02252 
1.08945 0.918571 1.02528 
1.09236 0.917166 1.01891 
1.09085 0.918714 1.02117 
1.09278 0.916729 1.01828 
1.09171 0.915852 1.02243 
1.09214 0.915268 1.02191 
1.08871 0.92206 1.02261 
1.08843 0.923374 1.02169 
1.08802 0.921372 1.02547 
1.08899 0.923363 1.02011 
1.08926 0.923478 1.01922 
1.09021 0.920386 1.0207 
1.0909 0.920366 1.0188 
1.08984 0.920335 1.0218 
1.08896 0.921117 1.02318 
1.08912 0.920401 1.02371 
1.09004 0.919043 1.023 
1.08962 0.918777 1.02453 
1.0865 0.929279 1.02185 
1.08592 0.927327 1.02472 
1.08569 0.929387 1.0243 
1.0872 0.92851 1.02004 
1.08721 0.927953 1.02042 
1.08781 0.92665 1.01972 
1.08809 0.92552 1.02009 
1.08805 0.925149 1.02061 
1.08825 0.927529 1.0176 
1.08735 0.926148 1.02154 
1.08606 0.926076 1.0254 
1.08746 0.925516 1.02188 
1.08679 0.924398 1.02508 
1.08667 0.925329 1.02436 
1.08551 0.935445 1.02478 
1.08691 0.936592 1.02019 
1.08691 0.935487 1.02032 
1.08742 0.936529 1.01857 
1.08663 0.931784 1.02109 
1.08661 0.931153 1.02114 
1.08736 0.931675 1.01872 
1.08565 0.931621 1.02428 
1.08536 0.932141 1.02526 
1.08641 0.93051 1.02182 
1.08574 0.931131 1.02394 
1.08522 0.94123 1.02314 
1.08451 0.94381 1.02356 
1.08457 0.941915 1.02465 
1.08541 0.942828 1.02153 
1.08667 0.941748 1.01843 
1.08558 0.945269 1.01932 
1.08599 0.943412 1.0194 
1.08607 0.940807 1.02083 
1.086 0.940207 1.02138 
1.08675 0.939078 1.01968 
1.0857 0.940046 1.02236 
1.0855 0.938859 1.02361 
1.08596 0.938384 1.02246 
1.08305 0.950023 1.02314 
1.08325 0.951556 1.02106 
1.08234 0.950092 1.0252 
1.08229 0.950781 1.02468 
1.08462 0.950704 1.01786 
1.08447 0.951599 1.01738 
1.08471 0.952124 1.01616 
1.08504 0.947821 1.01902 
1.0852 0.947295 1.01896 
1.08549 0.945565 1.01936 
1.08372 0.946881 1.02373 
1.08448 0.945795 1.02223 
1.08399 0.946555 1.02317 
1.07738 0.959469 1.02304 
1.07686 0.961335 1.02022 
1.07552 0.961622 1.02257 
1.07605 0.962845 1.01876 
1.07625 0.960513 1.02335 
1.07461 0.961147 1.0256 
1.07483 0.961332 1.02473 
1.07782 0.96122 1.01832 
1.07853 0.961239 1.01668 
1.0793 0.961541 1.01432 
1.08001 0.961422 1.01299 
1.07691 0.962142 1.01839 
1.0777 0.962924 1.01495 
1.07712 0.962247 1.01769 
1.07766 0.963428 1.01393 
1.07823 0.963561 1.0124 
1.07931 0.960402 1.01671 
1.07945 0.95935 1.01854 
1.08059 0.957996 1.01855 
