ply
format ascii 1.0
comment Created by CloudCompare v2.11.3 (Anoia)
comment Created 7/1/25 9:23 PM
obj_info Generated by CloudCompare!
element vertex 1679
property float x
property float y
property float z
end_header
0.117781 -0.235163 -0.0625 
-0.0325217 0.137466 -0.0625 
-0.00623187 0.168879 -0.0625 
0.100757 0.159305 -0.0625 
0.0292329 -0.0344689 -0.0625 
0.00561077 0.195572 -0.0625 
-0.0866677 0.21052 -0.0625 
0.0704434 0.174223 -0.0625 
0.122011 0.040719 -0.0625 
0.0722533 0.0934506 -0.0625 
0.0715086 -0.0783819 -0.0625 
0.0482581 0.17724 -0.0625 
-0.077232 0.213787 -0.0625 
-0.033353 0.148556 -0.0625 
0.0805422 0.074127 -0.0625 
-0.0348717 0.213792 -0.0625 
0.0291932 0.0616481 -0.0625 
0.112091 -0.170363 -0.0625 
0.0550756 0.163409 -0.0625 
-0.0349738 0.0816384 -0.0625 
0.0226989 0.207013 -0.0625 
0.107527 0.158534 -0.0625 
0.0168552 0.204279 -0.0625 
0.00172777 0.203473 -0.0625 
-0.0766319 0.245141 -0.0625 
0.0970327 0.016469 -0.0625 
-0.0344564 0.147588 -0.0625 
0.0646851 0.249842 -0.0625 
-0.0244683 0.186342 -0.0625 
0.0756546 0.161051 -0.0625 
0.0669966 0.161589 -0.0625 
-0.0760159 0.195836 -0.0625 
-8.12113e-06 0.121152 -0.0625 
0.119215 -0.1935 -0.0625 
0.0128425 0.2257 -0.0625 
0.110236 0.0260585 -0.0625 
0.107307 0.2191 -0.0625 
0.0798264 0.209909 -0.0625 
0.0796152 -0.0313537 -0.0625 
0.119094 -0.169828 -0.0625 
-0.0681611 0.151214 -0.0625 
0.118854 -0.174366 -0.0625 
0.0565484 0.24041 -0.0625 
0.122418 0.00522716 -0.0625 
0.114689 0.0551479 -0.0625 
0.120364 0.064372 -0.0625 
0.0358734 0.0574447 -0.0625 
0.018593 0.162812 -0.0625 
0.098067 0.174413 -0.0625 
0.0375209 0.0451522 -0.0625 
0.0493833 0.0266495 -0.0625 
0.0137364 0.154158 -0.0625 
0.029115 0.248972 -0.0625 
0.0376137 -0.0267557 -0.0625 
0.114111 0.0381558 -0.0625 
-0.0128439 0.174872 -0.0625 
0.0993503 0.125015 -0.0625 
-0.0852252 0.198691 -0.0625 
0.0429123 0.113082 -0.0625 
0.0463063 0.22475 -0.0625 
0.0905843 0.0074487 -0.0625 
0.0318107 0.242899 -0.0625 
0.0530896 0.1434 -0.0625 
-0.00481376 0.158298 -0.0625 
0.0443224 0.127321 -0.0625 
0.0204951 0.0253962 -0.0625 
0.119679 0.0119632 -0.0625 
-0.0990459 0.204693 -0.0625 
-0.0306774 0.0957496 -0.0625 
0.0455469 0.150959 -0.0625 
0.063665 0.0802044 -0.0625 
0.0898146 -0.00370136 -0.0625 
0.0626834 0.0325468 -0.0625 
0.0161734 0.249075 -0.0625 
-0.0295298 0.180762 -0.0625 
0.0576263 0.239953 -0.0625 
0.114702 -0.0328743 -0.0625 
0.0497601 0.162611 -0.0625 
0.115058 -0.130076 -0.0625 
0.0826269 0.00399636 -0.0625 
0.02614 -0.0328799 -0.0625 
0.0223425 0.0241018 -0.0625 
0.0631573 0.0964092 -0.0625 
0.121444 0.207427 -0.0625 
0.0441387 0.0734027 -0.0625 
0.122694 0.140836 -0.0625 
-0.115663 0.243328 -0.0625 
-0.0246422 0.212172 -0.0625 
0.0259019 0.0129396 -0.0625 
0.0619267 0.189841 -0.0625 
0.0958502 -0.155992 -0.0625 
0.113333 -0.136584 -0.0625 
0.102479 -0.0812912 -0.0625 
0.0540247 0.0295818 -0.0625 
0.00395952 0.17579 -0.0625 
0.0934664 0.179459 -0.0625 
0.0432663 0.0300665 -0.0625 
-0.0198985 0.234234 -0.0625 
0.083652 0.112819 -0.0625 
-0.0646287 0.222121 -0.0625 
0.108248 -0.132921 -0.0625 
-0.0111625 0.163911 -0.0625 
-0.114077 0.235864 -0.0625 
0.0603817 -0.0229462 -0.0625 
-0.00302164 0.21284 -0.0625 
-0.0167506 0.108375 -0.0625 
0.0252357 0.121416 -0.0625 
0.0658543 -0.0332596 -0.0625 
0.112529 -0.0561663 -0.0625 
0.100604 0.172117 -0.0625 
0.0719789 -0.0505908 -0.0625 
0.0516152 0.167708 -0.0625 
0.0353154 0.132879 -0.0625 
0.0773973 -0.0480753 -0.0625 
0.0187731 0.214006 -0.0625 
0.121337 0.24866 -0.0625 
0.0814817 0.046126 -0.0625 
0.0452256 -0.0775052 -0.0625 
0.0935689 -0.0487722 -0.0625 
-0.00732279 0.185767 -0.0625 
-0.0379276 0.217734 -0.0625 
0.0978041 0.217556 -0.0625 
0.0626752 -0.103199 -0.0625 
0.0730868 0.0616662 -0.0625 
0.0272319 0.0862901 -0.0625 
0.0813149 0.240031 -0.0625 
0.0999043 -0.0165949 -0.0625 
0.107737 -0.176804 -0.0625 
-0.0230365 0.203414 -0.0625 
0.0746424 0.200935 -0.0625 
0.122549 0.209594 -0.0625 
0.101687 -0.069831 -0.0625 
0.0583065 0.22691 -0.0625 
0.0548932 -0.0707297 -0.0625 
0.10917 -0.116447 -0.0625 
0.0955867 0.161349 -0.0625 
-0.0234318 0.0529052 -0.0625 
-0.0713549 0.1573 -0.0625 
0.0101665 0.0549528 -0.0625 
0.0774025 0.103753 -0.0625 
0.0969233 0.139542 -0.0625 
-0.0649048 0.227502 -0.0625 
0.0244731 0.0334485 -0.0625 
-0.025704 0.0951842 -0.0625 
-0.0578023 0.219563 -0.0625 
0.0770929 0.0277468 -0.0625 
0.0462238 0.106537 -0.0625 
-0.0424192 0.20011 -0.0625 
-0.00240522 0.153468 -0.0625 
0.000524692 0.114007 -0.0625 
0.0136037 -0.00227958 -0.0625 
-0.0417043 0.104341 -0.0625 
-0.0232576 0.0612486 -0.0625 
0.100813 0.240953 -0.0625 
0.102745 -0.0105424 -0.0625 
0.108047 -3.47495e-05 -0.0625 
-0.0543898 0.206911 -0.0625 
0.0243701 -0.031718 -0.0625 
0.0851871 0.176222 -0.0625 
-0.0612607 0.142377 -0.0625 
0.0358007 -0.0576628 -0.0625 
0.0843552 0.0232577 -0.0625 
-0.01831 0.245618 -0.0625 
0.105921 0.178919 -0.0625 
-0.0189008 0.177936 -0.0625 
0.0619185 -0.0944656 -0.0625 
0.119672 -0.15824 -0.0625 
0.121433 -0.0260599 -0.0625 
0.0201314 0.214476 -0.0625 
0.0139355 -0.00659233 -0.0625 
0.0418599 0.0358741 -0.0625 
0.11933 -0.227094 -0.0625 
0.0955359 0.145656 -0.0625 
-0.0769325 0.20462 -0.0625 
0.00858477 -0.0112566 -0.0625 
0.0152013 0.0862026 -0.0625 
0.0566618 0.131801 -0.0625 
0.121416 -0.025077 -0.0625 
0.0669847 0.0196307 -0.0625 
0.0539351 0.137072 -0.0625 
-0.0246742 0.206383 -0.0625 
0.117492 0.0328226 -0.0625 
0.108732 -0.0327296 -0.0625 
0.0361434 -0.0058856 -0.0625 
0.117542 0.161294 -0.0625 
-0.0399271 0.0873088 -0.0625 
0.0754207 0.22435 -0.0625 
0.105929 -0.128546 -0.0625 
-0.0181888 0.0486388 -0.0625 
-0.0238535 0.0833169 -0.0625 
0.0447599 -0.00409344 -0.0625 
0.0213037 0.161567 -0.0625 
0.0218409 0.117485 -0.0625 
-0.0751692 0.19838 -0.0625 
0.123601 -0.228155 -0.0625 
0.106045 0.248725 -0.0625 
0.102462 0.0244189 -0.0625 
2.25604e-05 0.112028 -0.0625 
0.0265667 -0.0299441 -0.0625 
0.0803963 -0.140905 -0.0625 
0.0469889 0.00132203 -0.0625 
0.09289 0.0677197 -0.0625 
0.0554798 0.0125716 -0.0625 
0.0138308 0.223416 -0.0625 
0.035934 0.228235 -0.0625 
0.0326827 0.00729501 -0.0625 
0.124932 0.036848 -0.0625 
0.0599326 0.154666 -0.0625 
0.046258 -0.00274539 -0.0625 
0.12463 0.146056 -0.0625 
0.0970761 -0.0555295 -0.0625 
0.111557 -0.161778 -0.0625 
0.0341153 0.15408 -0.0625 
0.122184 0.220669 -0.0625 
0.0636778 0.00958893 -0.0625 
-0.0753036 0.171727 -0.0625 
0.105451 -0.136627 -0.0625 
0.0826333 0.146354 -0.0625 
0.00512651 0.057293 -0.0625 
0.108733 0.13492 -0.0625 
0.0677438 0.121021 -0.0625 
0.0677015 0.107079 -0.0625 
0.0815936 -0.050395 -0.0625 
0.103888 0.0167499 -0.0625 
0.112809 0.207469 -0.0625 
0.120235 0.0971956 -0.0625 
-0.0573268 0.127967 -0.0625 
0.0752175 -0.0996517 -0.0625 
0.0132733 0.107628 -0.0625 
0.0998232 0.081063 -0.0625 
0.0907657 -0.173923 -0.0625 
0.0473272 0.22531 -0.0625 
0.0829142 0.0434535 -0.0625 
0.076339 -0.0714988 -0.0625 
0.0768505 0.112103 -0.0625 
-0.101336 0.241438 -0.0625 
-0.0546024 0.203703 -0.0625 
0.0395525 0.186369 -0.0625 
0.111767 0.196964 -0.0625 
0.0631989 -0.0840273 -0.0625 
0.0842923 0.224981 -0.0625 
0.102312 -0.200704 -0.0625 
0.0862364 0.227348 -0.0625 
0.0637144 0.00514112 -0.0625 
0.0442419 -0.0524071 -0.0625 
-0.0283892 0.100051 -0.0625 
0.0664716 -0.104816 -0.0625 
-0.0866925 0.232169 -0.0625 
0.102728 0.193815 -0.0625 
-0.0172627 0.0406212 -0.0625 
0.00674215 0.080502 -0.0625 
0.00816169 0.221255 -0.0625 
0.0985667 0.0419055 -0.0625 
6.25476e-05 0.124055 -0.0625 
0.107608 0.0667604 -0.0625 
0.0297142 0.235384 -0.0625 
0.00967358 0.2017 -0.0625 
0.0973422 -0.00674775 -0.0625 
0.0325861 0.119254 -0.0625 
0.0630394 0.0737165 -0.0625 
0.0780682 -0.0426985 -0.0625 
0.110611 0.0623512 -0.0625 
0.0874374 0.191863 -0.0625 
0.0981803 0.154013 -0.0625 
0.101032 -0.0611903 -0.0625 
0.0623237 -0.0185315 -0.0625 
0.0841253 0.0358099 -0.0625 
0.0180576 0.13121 -0.0625 
-0.0202359 0.144683 -0.0625 
0.122368 0.086871 -0.0625 
-0.044871 0.232148 -0.0625 
0.0708673 0.081511 -0.0625 
0.0584047 -0.0749126 -0.0625 
0.0139223 0.100642 -0.0625 
0.102037 0.00108972 -0.0625 
0.00861948 0.193541 -0.0625 
0.0869898 -0.144189 -0.0625 
-0.0690744 0.151615 -0.0625 
0.0407945 0.0699182 -0.0625 
0.0239412 0.217548 -0.0625 
0.0542272 0.151147 -0.0625 
0.114756 0.0275261 -0.0625 
0.021754 0.0627323 -0.0625 
-0.0378312 0.184453 -0.0625 
-0.000614718 0.20226 -0.0625 
0.114806 0.163169 -0.0625 
-0.0663866 0.196963 -0.0625 
0.0448039 -0.00832051 -0.0625 
0.0834155 0.178549 -0.0625 
0.0208031 0.197062 -0.0625 
0.0141214 -0.00170955 -0.0625 
0.065669 0.130275 -0.0625 
-0.0197367 0.150969 -0.0625 
0.0867483 -0.137022 -0.0625 
0.0710021 -0.123621 -0.0625 
0.0745966 0.132103 -0.0625 
0.10491 0.205412 -0.0625 
0.0484917 0.128546 -0.0625 
0.0885916 0.225546 -0.0625 
0.0898065 -0.0990424 -0.0625 
0.0771466 0.165726 -0.0625 
0.120151 -0.130667 -0.0625 
0.066239 -0.0789213 -0.0625 
0.0159023 0.0585397 -0.0625 
0.0376589 0.155032 -0.0625 
0.0845788 0.0235543 -0.0625 
0.0724643 0.0303531 -0.0625 
-0.056256 0.166787 -0.0625 
0.0376877 0.0670141 -0.0625 
0.0746165 -0.0533795 -0.0625 
-0.0300664 0.22287 -0.0625 
0.0953823 0.0579355 -0.0625 
0.0383185 0.0889189 -0.0625 
-0.0334672 0.0948083 -0.0625 
-0.0743747 0.238124 -0.0625 
0.105029 -0.158776 -0.0625 
-0.013573 0.185386 -0.0625 
0.0889954 0.0774146 -0.0625 
0.00181791 0.222045 -0.0625 
0.117141 0.212529 -0.0625 
0.0713021 0.013996 -0.0625 
-0.0580509 0.122773 -0.0625 
0.0921597 0.159979 -0.0625 
0.0717991 -0.0341967 -0.0625 
0.0862573 -0.023184 -0.0625 
-0.0289126 0.157976 -0.0625 
0.0620778 0.0797549 -0.0625 
0.103522 0.163601 -0.0625 
0.0584032 0.0142954 -0.0625 
-0.0215525 0.166949 -0.0625 
0.0441691 0.0370919 -0.0625 
0.051124 0.173203 -0.0625 
0.0764061 0.150632 -0.0625 
-0.0661688 0.152875 -0.0625 
0.10758 0.0999106 -0.0625 
0.0354297 0.144251 -0.0625 
-0.0434524 0.0979459 -0.0625 
0.104322 -0.0752114 -0.0625 
0.0793594 0.112985 -0.0625 
0.0579062 0.014486 -0.0625 
0.0999203 -0.137413 -0.0625 
-0.0384684 0.172879 -0.0625 
0.0478946 0.0988075 -0.0625 
-0.0329916 0.237445 -0.0625 
-0.0187102 0.206884 -0.0625 
-0.101072 0.218869 -0.0625 
0.0885061 0.182572 -0.0625 
0.00913135 0.0204922 -0.0625 
0.0985608 0.107817 -0.0625 
0.0707961 0.0275547 -0.0625 
0.114002 0.19116 -0.0625 
0.018761 0.128702 -0.0625 
-0.0274648 0.151205 -0.0625 
-0.00889863 0.180678 -0.0625 
0.123965 0.0317929 -0.0625 
-0.0380484 0.249684 -0.0625 
0.0551895 0.21748 -0.0625 
0.0417759 0.171173 -0.0625 
0.0139261 0.211044 -0.0625 
0.114042 0.216108 -0.0625 
0.106702 -0.0344562 -0.0625 
-0.0351804 0.11081 -0.0625 
0.0457011 0.0982513 -0.0625 
0.050759 -0.0306459 -0.0625 
-0.0352521 0.242474 -0.0625 
0.0832227 0.171912 -0.0625 
0.120026 -0.206984 -0.0625 
-0.0739889 0.212942 -0.0625 
-0.0212124 0.18792 -0.0625 
0.0940448 -0.185413 -0.0625 
0.081356 0.119128 -0.0625 
0.123843 -0.141346 -0.0625 
-0.0891149 0.208874 -0.0625 
0.000860751 0.0190663 -0.0625 
0.0153704 0.0868891 -0.0625 
0.0630151 -0.0956681 -0.0625 
0.0213783 -0.0171178 -0.0625 
-0.0388956 0.203223 -0.0625 
0.121035 0.236831 -0.0625 
0.109519 0.213738 -0.0625 
0.0305045 0.0672092 -0.0625 
0.0275868 -0.0373643 -0.0625 
0.0952167 0.108592 -0.0625 
-0.0242376 0.121316 -0.0625 
0.0992372 0.19217 -0.0625 
0.0253454 0.118994 -0.0625 
-0.082887 0.249561 -0.0625 
-0.0601782 0.171813 -0.0625 
0.0224597 0.0342069 -0.0625 
0.0316774 0.0649818 -0.0625 
0.0734445 0.0138008 -0.0625 
0.0933203 0.0900843 -0.0625 
0.0894578 -0.146415 -0.0625 
0.0633455 -0.0140298 -0.0625 
-0.0837945 0.223646 -0.0625 
0.0921435 -0.115422 -0.0625 
0.0273927 0.188676 -0.0625 
0.0796198 -0.157791 -0.0625 
0.107883 -0.0967299 -0.0625 
0.104598 0.230844 -0.0625 
0.118896 0.0725562 -0.0625 
0.0668178 -0.0074445 -0.0625 
0.0900005 -0.0602135 -0.0625 
0.0416829 0.00722227 -0.0625 
0.0736957 0.104702 -0.0625 
0.0578785 0.0640884 -0.0625 
0.0572057 0.206037 -0.0625 
0.0967812 0.0783051 -0.0625 
0.0917779 -0.0357283 -0.0625 
0.0634584 -0.0935818 -0.0625 
0.0651111 -0.126076 -0.0625 
0.0938459 0.178395 -0.0625 
0.111376 -0.198893 -0.0625 
0.0170088 -0.0212615 -0.0625 
0.0533758 -0.0492736 -0.0625 
0.0196048 0.238839 -0.0625 
-0.0261896 0.211185 -0.0625 
0.116039 -0.171683 -0.0625 
0.0497991 0.189537 -0.0625 
-0.094485 0.192509 -0.0625 
0.102359 -0.195817 -0.0625 
0.0839778 0.200222 -0.0625 
0.114583 0.0312055 -0.0625 
0.104133 -0.0187352 -0.0625 
0.117512 -0.0492396 -0.0625 
0.0979475 0.0196136 -0.0625 
0.0651072 0.136304 -0.0625 
0.0362262 0.172897 -0.0625 
0.0928361 0.0262685 -0.0625 
0.0070532 0.00531554 -0.0625 
0.0725607 -0.121451 -0.0625 
0.0800534 0.0662854 -0.0625 
-0.0793366 0.216154 -0.0625 
-0.0209 0.239778 -0.0625 
-0.0149094 0.156813 -0.0625 
-0.0331598 0.19701 -0.0625 
0.113187 -0.153458 -0.0625 
0.0618588 0.0882808 -0.0625 
-0.00585218 0.191372 -0.0625 
0.0638528 -0.0589461 -0.0625 
0.07866 0.199127 -0.0625 
-0.0650091 0.195182 -0.0625 
0.123006 -0.0519429 -0.0625 
0.0548392 0.0329639 -0.0625 
0.0706129 0.235187 -0.0625 
0.093851 -0.0829384 -0.0625 
-0.0714839 0.200826 -0.0625 
0.0673758 0.0769785 -0.0625 
0.109341 0.0492717 -0.0625 
0.070526 0.0550828 -0.0625 
0.0941668 -0.0465936 -0.0625 
0.021077 0.0973001 -0.0625 
0.0268085 -0.0221398 -0.0625 
0.091939 0.248459 -0.0625 
0.068338 0.151048 -0.0625 
0.0517701 0.139581 -0.0625 
0.117705 -0.202035 -0.0625 
0.0219809 0.127521 -0.0625 
0.063832 0.186579 -0.0625 
0.0414173 0.13193 -0.0625 
-0.0204112 0.113727 -0.0625 
0.100075 -0.180692 -0.0625 
0.0287837 -0.0471548 -0.0625 
0.123221 -0.223767 -0.0625 
0.120097 0.245385 -0.0625 
-0.0487828 0.189365 -0.0625 
0.109287 -0.0717455 -0.0625 
0.0336275 0.222241 -0.0625 
-0.0342494 0.125922 -0.0625 
0.012725 0.0599013 -0.0625 
0.113346 0.156404 -0.0625 
0.0629482 -0.00582945 -0.0625 
0.0798617 0.0486805 -0.0625 
-0.0108241 0.217986 -0.0625 
0.00995865 0.154265 -0.0625 
0.111449 -0.213266 -0.0625 
0.108571 0.109772 -0.0625 
0.103667 0.00165161 -0.0625 
0.0382193 -0.0673751 -0.0625 
0.11555 0.0395272 -0.0625 
0.0450724 0.188223 -0.0625 
0.0359674 0.182255 -0.0625 
0.0548254 0.173928 -0.0625 
0.0916127 -0.00016132 -0.0625 
-0.011511 0.0260836 -0.0625 
-0.0734333 0.237238 -0.0625 
0.0655032 0.18575 -0.0625 
0.0819806 0.0601249 -0.0625 
0.0659065 0.00211635 -0.0625 
0.0623036 0.0510987 -0.0625 
0.104687 0.17837 -0.0625 
-0.0116874 0.179874 -0.0625 
0.116137 0.236403 -0.0625 
0.0816751 -0.0609316 -0.0625 
0.0461319 0.231297 -0.0625 
0.112179 -0.119164 -0.0625 
0.0855644 -0.0153095 -0.0625 
-0.0118225 0.239281 -0.0625 
0.11627 -0.0463039 -0.0625 
0.0145436 0.0954573 -0.0625 
-0.0419765 0.1022 -0.0625 
-0.0486046 0.180177 -0.0625 
-0.0114589 0.189332 -0.0625 
0.0896408 0.0846737 -0.0625 
-0.0571963 0.223864 -0.0625 
0.11516 0.139514 -0.0625 
-0.0232925 0.244339 -0.0625 
0.10937 -0.182732 -0.0625 
0.0229527 0.0037076 -0.0625 
0.0773201 0.176178 -0.0625 
0.05387 0.111568 -0.0625 
-0.0112175 0.0476136 -0.0625 
0.0916073 0.108039 -0.0625 
0.0151469 -0.00496924 -0.0625 
0.112514 0.227762 -0.0625 
0.0321999 0.116696 -0.0625 
-0.0458965 0.19371 -0.0625 
0.083993 -0.0877537 -0.0625 
0.102577 -0.156609 -0.0625 
0.0567745 0.225749 -0.0625 
0.01286 0.100009 -0.0625 
0.0379663 0.150163 -0.0625 
-0.0171645 0.225688 -0.0625 
0.0121211 0.00784536 -0.0625 
0.0305887 0.18768 -0.0625 
-0.0590429 0.147254 -0.0625 
0.0673115 -0.0299072 -0.0625 
0.00472584 0.22884 -0.0625 
-0.0459172 0.16641 -0.0625 
0.108063 -0.0669515 -0.0625 
0.0534849 0.243279 -0.0625 
0.0533556 0.0794574 -0.0625 
-0.105978 0.241353 -0.0625 
0.038607 -0.0378305 -0.0625 
0.12066 0.179428 -0.0625 
0.0273581 0.000551239 -0.0625 
0.0902806 0.133175 -0.0625 
0.0357312 0.227889 -0.0625 
0.0390014 0.227039 -0.0625 
0.0500777 0.196136 -0.0625 
0.00826568 0.0356487 -0.0625 
0.119461 0.171691 -0.0625 
0.103983 -0.159036 -0.0625 
-0.058232 0.236758 -0.0625 
0.00481512 0.135489 -0.0625 
-0.0319654 0.245227 -0.0625 
0.0759245 0.0111813 -0.0625 
0.0245526 0.150282 -0.0625 
0.109479 -0.188579 -0.0625 
0.0114805 0.209286 -0.0625 
0.068768 0.0609719 -0.0625 
-0.003162 0.0624067 -0.0625 
0.121583 0.0763528 -0.0625 
0.115056 -0.0330424 -0.0625 
-0.0407807 0.175165 -0.0625 
-0.0051507 0.150166 -0.0625 
-0.0452315 0.226737 -0.0625 
0.0774676 0.248329 -0.0625 
0.0557983 0.115007 -0.0625 
0.0297916 0.233764 -0.0625 
0.0591699 0.0715757 -0.0625 
0.0942316 0.211109 -0.0625 
-0.00716359 0.173501 -0.0625 
0.116861 -0.0480689 -0.0625 
0.10924 0.000708386 -0.0625 
-0.0900311 0.233356 -0.0625 
0.016231 -0.00470701 -0.0625 
0.051668 0.184595 -0.0625 
0.0610956 0.14861 -0.0625 
-0.0145099 0.0935185 -0.0625 
0.0670347 0.165534 -0.0625 
-0.0324798 0.131608 -0.0625 
0.0750708 0.234187 -0.0625 
0.115832 0.136336 -0.0625 
0.0995574 0.1097 -0.0625 
0.039017 0.204518 -0.0625 
-0.0662638 0.242562 -0.0625 
0.0157345 0.13603 -0.0625 
0.0529221 0.0530303 -0.0625 
0.0553903 -0.0581194 -0.0625 
-0.0492068 0.220759 -0.0625 
0.0927709 0.0827567 -0.0625 
0.0778824 -0.130397 -0.0625 
0.0926961 -0.0993005 -0.0625 
-0.0292472 0.126101 -0.0625 
0.104969 0.120084 -0.0625 
0.0626777 0.018716 -0.0625 
0.0279143 0.202859 -0.0625 
-0.0378982 0.249566 -0.0625 
-0.0172394 0.100742 -0.0625 
0.103801 -3.93093e-05 -0.0625 
0.116371 -0.0292382 -0.0625 
0.0514961 0.191459 -0.0625 
0.0496913 0.215697 -0.0625 
0.0630385 -0.0840586 -0.0625 
-0.115396 0.23859 -0.0625 
-0.111889 0.244703 -0.0625 
-0.125 0.209407 -0.00452001 
-0.125 0.138267 -0.0400389 
-0.125 -0.0877477 -0.0389737 
-0.125 0.155436 0.0289195 
-0.125 0.148563 -0.0515327 
-0.125 0.238304 -0.00246741 
-0.125 0.0973222 -0.0229884 
-0.125 -0.0729888 -0.0579678 
-0.125 0.0548265 -0.0316492 
-0.125 0.115399 -0.00383726 
-0.125 0.124216 -0.0401845 
-0.125 0.0610604 -0.0092655 
-0.125 0.0128161 -0.00919725 
-0.125 -0.0228594 -0.0191913 
-0.125 0.242199 -0.0133161 
-0.125 0.147688 -0.0339067 
-0.125 0.147101 -0.036481 
-0.125 0.163884 -0.0121923 
-0.125 0.0261617 -0.057149 
-0.125 0.0935123 -0.0511482 
-0.125 0.194288 -0.00721783 
-0.125 0.226486 -0.0586126 
-0.125 -0.130778 -0.0572637 
-0.125 0.24973 0.0329766 
-0.125 0.21393 -0.013427 
-0.125 -0.0963538 -0.0384016 
-0.125 0.124854 -0.0617404 
-0.125 0.216771 0.0258085 
-0.125 0.126209 -0.0349677 
-0.125 0.0156791 -0.042899 
-0.125 -0.118091 -0.0411286 
-0.125 0.147853 -0.0279779 
-0.125 0.121299 -0.0347295 
-0.125 0.239807 -0.0295319 
-0.125 0.177706 0.0258495 
-0.125 0.0798486 -0.0357457 
-0.125 -0.0894334 -0.0374959 
-0.125 0.181582 -0.0387464 
-0.125 -0.026547 -0.0381596 
-0.125 -0.0881913 -0.0564254 
-0.125 0.213894 0.0340445 
-0.125 0.165995 -0.0205827 
-0.125 0.094334 -0.0333024 
-0.125 0.160013 -0.00184855 
-0.125 -0.21311 -0.059885 
-0.125 0.141282 -0.0215172 
-0.125 0.0736819 -0.0437042 
-0.125 -0.172231 -0.0507075 
-0.125 0.123091 -0.0475304 
-0.125 0.151161 -0.0064317 
-0.125 0.197033 0.0455011 
-0.125 0.0231856 -0.0150399 
-0.125 -0.035913 -0.0345351 
-0.125 0.128025 -0.0491398 
-0.125 -0.0801894 -0.0325806 
-0.125 -0.118598 -0.0305866 
-0.125 -0.129268 -0.0560446 
-0.125 0.0208833 -0.0448293 
-0.125 0.239592 -0.0621728 
-0.125 0.213804 -0.0451868 
-0.125 0.0316386 -0.0585229 
-0.125 0.173148 0.0239989 
-0.125 0.105847 0.0226136 
-0.125 0.136757 -0.0537644 
-0.125 0.20832 -0.0134345 
-0.125 -0.102944 -0.0380949 
-0.125 0.126664 -0.0155096 
-0.125 -0.0379742 -0.0227513 
-0.125 0.0623528 -0.0497811 
-0.125 0.0569706 -0.0402168 
-0.125 0.042285 0.00402813 
-0.125 0.124196 0.00349687 
-0.125 0.0489161 -0.0189328 
-0.125 -0.00626211 -0.00853104 
-0.125 0.0414579 -0.0245473 
-0.125 0.193161 0.0460298 
-0.125 0.111142 -0.0284077 
-0.125 0.14138 -0.032486 
-0.125 -0.157616 -0.0394679 
-0.125 0.0212497 -0.01648 
-0.125 0.245689 -0.00824515 
-0.125 0.154483 0.0370367 
-0.125 0.237208 -0.059546 
-0.125 -0.146241 -0.0486746 
-0.125 0.0727593 0.0141858 
-0.125 0.0914477 -0.0385411 
-0.125 0.198012 -0.00989842 
-0.125 0.00900336 -0.020441 
-0.125 0.0497037 -0.00512633 
-0.125 0.163308 -0.0620133 
-0.125 -0.056992 -0.0413978 
-0.125 0.173272 0.0078021 
-0.125 0.230327 0.053956 
-0.125 0.116497 -0.016754 
-0.125 -0.0701981 -0.0244374 
-0.125 0.00258506 -0.000506543 
-0.125 -0.162702 -0.0466231 
-0.125 -0.168904 -0.0605538 
-0.125 -0.152169 -0.0551114 
-0.125 0.0638492 0.00612599 
-0.125 0.18366 -0.0130212 
-0.125 0.225344 0.00120024 
-0.125 0.119414 0.0042762 
-0.125 0.10515 -0.00644837 
-0.125 -0.030477 -0.0409281 
-0.125 -0.0862376 -0.0231928 
-0.125 0.18107 0.0342192 
-0.125 0.224707 0.0113404 
-0.125 -0.096592 -0.0604559 
-0.125 0.112501 -0.0424121 
-0.125 0.199582 -0.0333565 
-0.125 0.236595 0.0551128 
-0.125 -0.12789 -0.0395999 
-0.125 -0.0118744 -0.0124873 
-0.125 0.0533104 -0.0276064 
-0.125 0.184895 0.0173345 
-0.125 0.177517 -0.0498296 
-0.125 0.221054 0.0491324 
-0.125 0.0604329 -0.0322203 
-0.125 0.183367 0.0128093 
-0.125 0.0654654 -0.00396969 
-0.125 0.106961 0.00359663 
-0.125 -0.113599 -0.0304377 
-0.125 0.241342 -0.0528348 
-0.125 -0.0748821 -0.0271561 
-0.125 0.19641 -0.0298402 
-0.125 0.234321 0.0550114 
-0.125 -0.198053 -0.0505377 
-0.125 -0.0372472 -0.0535115 
-0.125 0.0503897 -0.0168876 
-0.125 0.186696 -0.00710455 
-0.125 0.240171 0.0341004 
-0.125 -0.18692 -0.0558277 
-0.125 0.0344441 -0.0528315 
-0.125 0.0857778 -0.0314815 
-0.125 -0.0110509 -0.0522955 
-0.125 0.141217 -0.0491134 
-0.125 0.240463 0.0232158 
-0.125 -0.0430936 -0.0495989 
-0.125 0.203893 -0.0504141 
-0.125 0.0566239 -0.00184228 
-0.125 0.0493049 -0.0346339 
-0.125 0.197763 -0.0219665 
-0.125 0.0412612 0.00588625 
-0.125 0.0336295 -0.0251638 
-0.125 0.0470245 -0.00753816 
-0.125 -0.0557203 -0.0483524 
-0.125 0.0530072 -0.020623 
-0.125 0.0626383 0.00593592 
-0.125 -0.0145978 -0.0400658 
-0.125 0.136254 -0.0553136 
-0.125 0.244456 0.0544573 
-0.125 0.0843598 -0.0598169 
-0.125 -0.00212589 -0.0016184 
-0.125 0.141297 0.0344466 
-0.125 0.0598993 0.00641464 
-0.125 0.131956 0.0106832 
-0.125 -0.0446608 -0.0527407 
-0.125 -0.057963 -0.0405733 
-0.125 -0.00288494 -0.0138817 
-0.125 0.197547 -0.0374781 
-0.125 -0.120741 -0.0564096 
-0.125 0.141059 -0.053544 
-0.125 0.212639 0.0259948 
-0.125 -0.058619 -0.0292836 
-0.125 0.0499225 -0.0509445 
-0.125 0.211284 -0.00754416 
-0.125 0.167661 -0.0155634 
-0.125 0.247618 -0.0137583 
-0.125 0.143929 -0.0557984 
-0.125 0.169377 -0.0103694 
-0.125 0.0429652 -0.0408576 
-0.125 0.193263 0.00422788 
-0.125 0.0553579 -0.0128174 
-0.125 0.21994 -0.0619348 
-0.125 0.0118993 -0.0260752 
-0.125 0.225532 0.0187774 
-0.125 0.12433 -0.030826 
-0.125 0.218981 -0.0210796 
-0.125 0.201039 -0.0039744 
-0.125 0.241966 0.000328258 
-0.125 0.124291 -0.0184986 
-0.125 0.000741623 -0.00434884 
-0.125 -0.0401237 -0.0356091 
-0.125 0.0279045 -0.0401413 
-0.125 0.247811 -0.0580004 
-0.125 -0.0955867 -0.0493315 
-0.125 0.00394928 -0.0614319 
-0.125 0.095255 -0.0429405 
-0.125 0.224478 0.0243608 
-0.125 -0.0569267 -0.0211906 
-0.125 -0.110667 -0.0590964 
-0.125 0.231166 -0.0525773 
-0.125 -0.0130505 -0.0616354 
-0.125 0.00602478 -0.0216152 
-0.125 0.0331629 -0.0361177 
-0.125 0.0340033 -0.0623486 
-0.125 -0.000644099 -0.010961 
-0.125 0.175906 0.0418569 
-0.125 0.0441071 0.0108927 
-0.125 -0.156323 -0.0497156 
-0.125 -0.00939107 -0.00458137 
-0.125 -0.056794 -0.021471 
-0.125 0.22793 0.0569527 
-0.125 0.0576087 0.0049611 
-0.125 -0.015251 -0.0137875 
-0.125 0.245921 0.0547585 
-0.125 0.0606255 -0.0189348 
-0.125 0.0909765 -0.00820183 
-0.125 0.189758 -0.0420457 
-0.125 -0.00868073 -0.0407998 
-0.125 0.197719 -0.052224 
-0.125 -0.0845151 -0.0411085 
-0.125 -0.183819 -0.0471027 
-0.125 0.129786 0.0104263 
-0.125 0.247112 -0.00991736 
-0.125 0.0845508 -0.035909 
-0.125 0.216351 0.0337293 
-0.125 0.220029 0.0462849 
-0.125 -0.0993297 -0.0492044 
-0.125 -0.154092 -0.0430285 
-0.125 0.201055 -0.0339074 
-0.125 -0.0930904 -0.0610011 
-0.125 0.244083 0.0535186 
-0.125 0.179428 -0.0238144 
-0.125 0.210631 -0.0330171 
-0.125 0.0691148 -0.0407343 
-0.125 -0.0630623 -0.0376584 
-0.125 -0.0163807 -0.0101348 
-0.125 0.213512 -0.0336771 
-0.125 0.0983029 0.0207942 
-0.125 0.121008 -0.0283459 
-0.125 -0.0555241 -0.0420739 
-0.125 0.0460016 -0.0380018 
-0.125 0.232994 0.0244241 
-0.125 0.249651 -0.00760866 
-0.125 -0.116519 -0.0323237 
-0.125 0.0896307 -0.0272365 
-0.125 -0.0544557 -0.0535461 
-0.125 -0.219109 -0.0560706 
-0.125 0.0815839 -0.0478373 
-0.125 0.150995 -0.0512252 
-0.125 0.196373 0.0276985 
-0.125 -0.13706 -0.0583663 
-0.125 -0.110615 -0.0415919 
-0.125 0.24144 -0.0406933 
-0.125 0.0147658 -0.0366004 
-0.125 0.0968215 0.0142721 
-0.125 -0.19828 -0.0574861 
-0.125 0.063316 0.0101196 
-0.125 0.0368009 -0.0365564 
-0.125 0.188638 0.0289212 
-0.125 0.0865797 -0.0385709 
-0.125 0.113779 -0.0312479 
-0.125 0.207576 -0.00943209 
-0.125 0.161446 0.0333599 
-0.125 0.208137 -0.0314689 
-0.125 0.194729 -0.0126125 
-0.125 0.0110817 -0.0143493 
-0.125 -0.0743505 -0.0456695 
-0.125 0.215341 0.0405034 
-0.125 0.0878111 0.0100282 
-0.125 0.16361 -0.0061825 
-0.125 0.218853 0.00431527 
-0.125 -0.11882 -0.0577181 
-0.125 0.121112 -0.0316319 
-0.125 0.0174214 -0.0141936 
-0.125 0.139528 -0.0517433 
-0.125 -0.0335305 -0.0348958 
-0.125 0.203816 -0.0483228 
-0.125 0.0541114 -0.0325146 
-0.125 0.224919 -0.0488233 
-0.125 0.105284 -0.0161236 
-0.125 0.0441162 -0.0390531 
-0.125 0.0345758 -0.022572 
-0.125 -0.0994051 -0.0526683 
-0.125 0.0619537 -0.0482709 
-0.125 0.154122 -0.0370524 
-0.125 0.0771337 -0.0588049 
-0.125 -0.140983 -0.0495649 
-0.125 -0.0355497 -0.0183323 
-0.125 -0.00450298 -0.0392125 
-0.125 0.0776133 -0.00572936 
-0.125 -0.152529 -0.0399632 
-0.125 0.189135 -0.0144055 
-0.125 0.214183 0.0529669 
-0.125 0.142239 0.0255591 
-0.125 0.0714018 -0.0474014 
-0.125 0.212527 0.00712115 
-0.125 0.0340362 -0.0417256 
-0.125 0.185352 0.0167034 
-0.125 0.210298 -0.0272032 
-0.125 -0.0396606 -0.0224151 
-0.125 0.237194 0.024759 
-0.125 0.00326451 -0.0131642 
-0.125 0.212606 0.0240761 
-0.125 0.238439 -0.0364844 
-0.125 0.132317 -0.0543283 
-0.125 0.19948 0.0314388 
-0.125 -0.095622 -0.0418894 
-0.125 0.235567 -0.040565 
-0.125 0.241932 -0.00465416 
-0.125 0.206727 0.0116847 
-0.125 -0.119484 -0.0586503 
-0.125 0.21137 0.0135993 
-0.125 0.246465 0.0569027 
-0.125 0.106279 0.00174177 
-0.125 0.0626745 -0.0497932 
-0.125 0.098609 -0.0193776 
-0.125 0.223253 -0.0267183 
-0.125 -0.0153387 -0.0463548 
-0.125 0.0671855 -0.0465102 
-0.125 -0.0162104 -0.0383833 
-0.125 0.24232 -0.00358372 
-0.125 0.118266 -0.0606782 
-0.125 0.158235 -0.0540465 
-0.125 0.195767 -0.00374716 
-0.125 0.170185 0.0362778 
-0.125 0.220883 -0.033376 
-0.125 0.142 -0.035534 
-0.125 -0.05859 -0.0554145 
-0.125 0.0857918 -0.0124106 
-0.125 0.200942 0.0187788 
-0.125 0.129605 -0.0442563 
-0.125 0.0763947 0.0167597 
-0.125 0.0444505 -0.0602779 
-0.125 0.205773 -0.0470851 
-0.125 -0.0892124 -0.0244394 
-0.125 0.125198 -0.0313205 
-0.125 -0.0466643 -0.0546805 
-0.125 0.0148106 -0.00555038 
-0.125 -0.0541438 -0.0609064 
-0.125 0.133518 -0.0319256 
-0.125 -0.00173135 -0.0321709 
-0.125 -0.132958 -0.0495117 
-0.125 0.129199 -0.041335 
-0.125 0.163625 -0.0577897 
-0.125 0.213083 0.0416359 
-0.125 0.0573232 -0.0572492 
-0.125 0.114088 -0.0459397 
-0.125 -0.145342 -0.0579212 
-0.125 0.0430602 -0.0405656 
-0.125 0.187353 -0.0300108 
-0.125 0.119213 0.0260661 
-0.125 0.157551 -0.04939 
-0.125 0.170802 -0.0146366 
-0.125 0.129673 0.011479 
-0.125 0.0494792 -0.0148544 
-0.125 0.23865 -0.0362029 
-0.125 -0.0342323 -0.0178911 
-0.125 0.209525 0.00570373 
-0.125 0.247454 0.0592604 
-0.125 0.0669117 0.0147869 
-0.125 -0.0445261 -0.0358296 
-0.125 0.122269 -0.062105 
-0.125 0.186977 0.0157748 
-0.125 0.0943331 0.00127509 
-0.125 -0.111646 -0.0515171 
-0.125 0.0332448 -0.0172321 
-0.125 0.154642 -0.0246865 
-0.125 0.0637864 -0.0200725 
-0.125 0.140053 0.00677735 
-0.125 0.0776747 0.0145717 
-0.125 -0.215427 -0.061133 
-0.125 0.0765431 -0.0425182 
-0.125 0.217391 -0.0253196 
-0.125 0.234837 0.05033 
-0.125 0.185735 0.0182863 
-0.125 0.10849 -0.00538477 
-0.125 0.0793371 0.00448922 
-0.125 0.104909 -0.0271278 
-0.125 0.166715 0.00369488 
-0.125 0.207742 -0.0568397 
-0.125 0.114698 -0.0501663 
-0.125 0.244156 -0.0148826 
-0.125 0.248022 0.0546079 
-0.125 0.228576 -0.0522596 
-0.125 0.18148 -0.0264582 
-0.125 0.0798997 -0.0484731 
-0.125 -0.188627 -0.0479416 
-0.125 0.246575 0.0227612 
-0.125 0.161936 0.00692277 
-0.125 0.127239 -0.0116038 
-0.125 0.222605 -0.00587698 
-0.125 0.206953 -0.0239419 
-0.125 0.104326 0.000812426 
-0.125 0.136764 -0.0163748 
-0.125 0.156935 -0.0393416 
-0.125 0.0417011 -0.0266759 
-0.125 -0.0131173 -0.0202684 
-0.125 -0.100565 -0.0507053 
-0.125 0.112775 -0.00546991 
-0.125 0.120921 0.0252886 
-0.125 0.107826 -0.0143997 
-0.125 0.0267949 -0.0382261 
-0.125 0.0673317 0.00774184 
-0.125 0.160609 -0.0519383 
-0.125 0.119884 0.00796159 
-0.125 0.163036 -0.0361453 
-0.125 0.20244 0.0466202 
-0.125 0.20554 -0.0355431 
-0.125 0.123131 -0.026278 
-0.125 0.00215899 -0.0164154 
-0.125 0.220952 -0.0537499 
-0.125 0.222868 0.0423844 
-0.125 0.121046 -0.00251411 
-0.125 0.0448666 -0.00681287 
-0.125 0.190297 -0.0237128 
-0.125 0.145754 0.0242617 
-0.125 0.0044788 -0.043939 
-0.125 0.00696998 -0.0291479 
-0.125 0.147509 0.0117562 
-0.125 0.168685 0.0257867 
-0.125 0.120368 0.0108786 
-0.125 0.165384 -0.0343824 
-0.125 0.196655 0.0171774 
-0.125 -0.147908 -0.0527479 
-0.125 0.200479 0.00283507 
-0.125 0.15713 0.0219579 
-0.125 0.118242 -0.0416529 
-0.125 0.148601 -0.0577848 
-0.125 0.0913348 0.00241602 
-0.125 0.235875 -0.0293009 
-0.125 0.160279 0.033445 
-0.125 0.113269 -0.0159164 
-0.125 -0.099971 -0.0521163 
-0.125 0.117191 -0.0463152 
-0.125 -0.151486 -0.0499867 
-0.125 0.204141 -0.0268231 
-0.125 0.016992 0.00117477 
-0.125 0.190383 -0.0531231 
-0.125 0.0636218 -0.0252147 
-0.125 -0.186749 -0.0574286 
-0.125 0.0746673 0.018402 
-0.125 0.23504 -0.0579856 
-0.125 0.0832373 -0.00931644 
-0.125 0.246941 0.0487524 
-0.125 0.23656 -0.00633338 
-0.125 -0.000634283 -0.0379826 
-0.125 -0.0898207 -0.0350802 
-0.125 0.0960802 -0.00440218 
-0.125 -0.0939485 -0.0334899 
-0.125 0.219478 0.00166921 
-0.125 0.0455668 -0.0284639 
-0.125 0.185571 -0.0382431 
-0.125 0.182039 -0.0116384 
-0.125 0.00183904 -0.0377494 
-0.125 -0.0307086 -0.0178091 
-0.125 0.198419 0.00730984 
-0.125 0.166777 -0.0129189 
-0.125 0.0613712 -0.0315119 
-0.125 0.239831 0.012531 
-0.125 -0.0595671 -0.041778 
-0.125 0.243329 -0.0589862 
-0.125 -0.0350246 -0.0264132 
-0.125 0.11695 0.0188796 
-0.125 0.165616 0.0225649 
-0.125 -0.00143975 -0.0567474 
-0.125 0.21535 -0.0553793 
-0.125 0.18392 0.0206526 
-0.125 -0.0606032 -0.0498705 
-0.125 0.1346 0.00784948 
-0.125 0.00935486 -0.0608928 
-0.125 -0.0618441 -0.0526125 
-0.125 -0.117859 -0.0431872 
-0.125 0.215381 -0.0461137 
-0.125 -0.0529751 -0.0472468 
-0.125 0.0316761 -0.0521739 
-0.125 0.0404454 -0.0110556 
-0.125 0.233333 -0.00016487 
-0.125 0.132564 -0.0183328 
-0.125 -0.0276202 -0.0364364 
-0.125 0.22728 0.0213777 
-0.125 0.176196 0.00898555 
-0.125 0.209896 -0.015698 
-0.125 0.229836 -0.00992683 
-0.125 -0.00197574 -0.0523425 
-0.125 0.0024574 -0.0106392 
-0.125 -0.142273 -0.0452819 
-0.125 0.0718854 -0.0319067 
-0.125 0.173299 -0.0364744 
-0.125 0.0840066 0.0186036 
-0.125 0.166935 -0.0208626 
-0.125 0.196084 0.0245507 
-0.125 0.194965 0.0153133 
-0.125 0.159194 -0.0286931 
-0.125 0.228532 0.0346381 
-0.125 0.0536521 -0.0256931 
-0.125 0.194505 -0.017656 
-0.125 0.195818 0.0172034 
-0.125 0.069987 -0.0425233 
-0.125 0.0347282 -0.0414018 
-0.125 -0.117221 -0.0471518 
-0.125 0.154221 -0.0566623 
-0.125 0.165317 -0.0113596 
-0.125 0.0455705 -0.00266695 
-0.125 0.246556 -0.00427111 
-0.125 -0.0107233 -0.019414 
-0.125 0.0789423 -0.0339892 
-0.125 0.0160885 -0.0269283 
-0.125 0.152514 0.0199523 
-0.125 0.202522 -0.026338 
-0.125 0.225163 0.0224031 
-0.125 0.0279846 -0.030289 
-0.125 0.0357439 -0.0282195 
-0.125 0.0336468 -0.0562793 
-0.125 0.0617662 -0.0406072 
-0.125 0.220227 -0.0289698 
-0.125 0.087531 -0.0359946 
-0.125 0.221949 0.0189459 
-0.125 -0.0571541 -0.0248537 
-0.125 0.142171 0.0116081 
-0.125 0.180681 0.013116 
-0.125 0.0174545 -0.0202613 
-0.125 0.180846 0.0346505 
-0.125 -0.00413141 -0.0599371 
-0.125 0.0325972 -0.0575923 
-0.125 0.170088 -0.00207381 
-0.125 0.137732 -0.0601738 
-0.125 -0.031129 -0.0277243 
-0.125 0.184904 -0.0254788 
-0.125 0.233455 0.027675 
-0.125 -0.00554532 -0.0179746 
-0.125 0.039976 -0.00276667 
-0.125 0.169115 0.0378901 
-0.125 -0.0304364 -0.0109145 
-0.125 -0.160388 -0.0416708 
-0.125 0.0486333 -0.0606697 
-0.125 0.0108764 -0.0441767 
-0.125 0.00898758 -0.022957 
-0.125 0.092009 0.00379702 
-0.125 0.172218 -0.0121015 
-0.125 0.0216398 -0.0248883 
-0.125 0.231344 -0.00676995 
-0.125 0.188476 0.010259 
-0.125 -0.0612996 -0.0316852 
-0.125 0.138523 0.00771077 
-0.125 0.186832 -0.0225379 
-0.125 0.146521 -0.0141703 
-0.125 0.13297 0.00353266 
-0.125 -0.121009 -0.0598328 
-0.125 -0.0878708 -0.0525893 
-0.125 0.114685 -0.0538971 
-0.125 -0.0752335 -0.0199832 
-0.125 -0.0434125 -0.0251135 
-0.125 0.113873 -0.0337878 
-0.125 0.0797663 -0.0478705 
-0.125 0.0827522 0.0132956 
-0.125 0.246736 0.03606 
-0.125 0.00406052 -0.0482008 
-0.125 0.204636 -0.00212897 
-0.125 0.134787 -0.0575028 
-0.125 0.197058 -0.0228647 
-0.125 0.134861 0.0216961 
-0.125 -0.00281876 -0.0350901 
-0.125 0.102491 -0.015265 
-0.125 0.123221 0.00178365 
-0.125 0.0363961 -0.0189413 
-0.125 0.169589 -0.0495719 
-0.125 0.236342 -0.0388349 
-0.125 -0.0858774 -0.028323 
-0.125 -0.0376518 -0.0442481 
-0.125 0.206241 -0.00427511 
-0.125 0.0548227 0.0115852 
-0.125 0.146823 -0.00333152 
-0.125 -0.0411501 -0.0105301 
-0.125 0.121472 -0.0594873 
-0.125 -0.0181826 -0.0129216 
-0.125 0.115031 -0.0540831 
-0.125 0.0217879 -0.00723322 
-0.125 0.0279673 -0.0162893 
-0.125 0.0955154 0.0200413 
-0.125 -2.67774e-05 -0.0356394 
-0.125 0.161334 -0.00104881 
-0.125 0.117525 0.0119192 
-0.125 -0.0606301 -0.0605741 
-0.125 0.189958 0.0344059 
-0.125 0.0897075 0.0046819 
-0.125 0.130862 -0.00974773 
-0.125 0.181479 0.0310493 
-0.125 0.202671 -0.0423677 
-0.125 0.238279 -0.039656 
-0.125 -0.00951207 -0.0322668 
-0.125 0.125642 -0.0578924 
-0.125 0.021407 -0.0427196 
-0.125 0.229238 0.027968 
-0.125 -0.0786892 -0.0341267 
-0.125 0.104115 -0.0168836 
-0.125 0.217158 -0.016448 
-0.125 -0.0362829 -0.0266933 
-0.125 0.228179 0.0230687 
-0.125 0.0620884 -0.0518341 
-0.125 0.242199 -0.00123959 
-0.125 0.226947 -0.0115055 
-0.125 0.249605 0.00378063 
-0.125 0.179291 -0.0152783 
-0.125 0.227505 -0.0404549 
-0.125 0.190794 0.017307 
-0.125 0.109957 -0.0604749 
-0.125 -0.00202543 -0.0242974 
-0.125 0.106111 -0.0524274 
-0.125 0.216514 -0.0617349 
-0.125 0.178714 0.00142665 
-0.125 0.229065 0.0553775 
-0.125 0.0749478 -0.00465602 
-0.125 0.201405 -0.031601 
-0.125 0.109742 -0.0261 
-0.125 0.106728 0.0177527 
-0.125 0.058903 -0.00695127 
-0.125 0.177873 -0.0331459 
-0.125 -0.0699349 -0.0591949 
-0.125 -0.138904 -0.0481781 
-0.125 0.175175 -0.0178513 
-0.125 0.136291 0.00183264 
-0.125 0.0370544 -0.019853 
-0.125 -0.226583 -0.0577533 
-0.125 0.0673019 0.00827175 
-0.125 0.197527 -0.0333951 
-0.125 0.0363179 -0.0313443 
-0.125 0.198607 -0.0556638 
-0.125 0.100055 0.00375286 
-0.125 0.179331 -0.0506838 
-0.125 0.0313035 -0.0358852 
-0.125 0.195894 -0.0464466 
-0.125 0.141174 0.0224857 
-0.125 -0.0061816 -0.0459055 
-0.125 0.142305 -0.00906966 
-0.125 0.10393 -0.0172954 
-0.125 -0.0155802 -0.0127406 
-0.125 -0.00478246 -0.00671916 
-0.125 0.0580225 -0.0234435 
-0.125 0.141791 -0.0129895 
-0.125 0.200418 0.0291903 
-0.125 0.207478 0.00396495 
-0.125 0.189427 0.031654 
-0.125 0.241447 -0.0218284 
-0.125 -0.0151733 -0.0192367 
-0.125 0.204623 -0.00750607 
-0.125 0.14985 -0.0475309 
-0.125 0.155982 0.0141068 
-0.125 -0.189244 -0.049753 
-0.125 -0.034212 -0.0105961 
-0.125 0.0959106 -0.0354772 
-0.125 0.159716 -0.061382 
-0.125 0.078814 0.00794118 
-0.125 0.120758 -0.0605712 
-0.125 -0.0481903 -0.0121377 
-0.125 -0.107275 -0.0349295 
-0.125 0.0349433 0.00308903 
-0.125 0.00691971 -0.00312036 
-0.125 -0.0647714 -0.052529 
-0.125 0.0401565 -0.029742 
-0.125 0.19477 0.0299486 
-0.125 0.140737 -0.0335445 
-0.125 0.171874 -0.0467846 
-0.125 0.0948645 -0.0174735 
-0.125 0.119902 -0.0406443 
-0.125 0.15445 0.0359183 
-0.125 0.177539 0.0233277 
-0.125 0.0965534 -0.0461715 
-0.125 0.237751 0.0456413 
-0.125 0.181123 -0.051879 
-0.125 0.123421 -0.00646323 
-0.125 0.117868 -0.0554107 
-0.125 0.0918747 -0.00172638 
-0.125 -0.0951589 -0.0557894 
-0.125 0.210273 0.00922028 
-0.125 0.0273058 -0.00881794 
-0.125 0.162883 0.0155558 
-0.125 0.0136821 -0.0195016 
-0.125 -0.0166507 -0.0466262 
-0.125 -0.175675 -0.0445516 
-0.125 -0.0664745 -0.0189949 
-0.125 0.16486 -0.0187045 
-0.125 0.0997532 -0.0361315 
-0.125 0.20851 -0.0615449 
-0.125 -0.0144648 -0.0216184 
-0.125 -0.00213251 -0.0470239 
-0.125 -0.056494 -0.0253204 
-0.125 0.158582 0.0187002 
-0.125 0.23818 -0.0395412 
-0.125 0.0708054 -0.000221994 
-0.125 0.176163 -0.0105787 
-0.125 0.0115947 -0.0238888 
-0.125 -0.0189257 -0.0279672 
-0.125 0.0286787 -0.0199798 
-0.125 -0.107748 -0.0597253 
-0.125 0.107908 -0.0578386 
-0.125 0.211646 0.0375703 
-0.125 0.22487 0.0439063 
-0.125 0.204786 -0.0279969 
-0.125 0.129881 -0.0615755 
-0.125 0.100206 0.0099088 
-0.125 0.18035 -0.0117082 
-0.125 0.216236 -0.0289984 
-0.125 0.0846698 -0.0441422 
-0.125 0.217366 -0.0326282 
-0.125 0.201118 0.020826 
-0.125 -0.0669417 -0.0414218 
-0.125 0.125582 0.00519612 
-0.125 -0.0338223 -0.0210964 
-0.125 0.242634 0.0188356 
-0.125 0.186184 -0.0610304 
-0.125 -0.0848014 -0.0370943 
-0.125 -0.101465 -0.0563403 
-0.125 0.236915 -0.0301616 
-0.125 -0.0287539 -0.0491306 
-0.125 0.124723 -0.0456924 
-0.125 -0.134585 -0.0498101 
-0.125 -0.119178 -0.0429468 
-0.125 0.0578801 0.0131162 
-0.125 0.185002 -0.0608749 
-0.125 0.0331077 -0.0224767 
-0.125 0.248006 0.0286764 
-0.125 0.151538 -0.0257291 
-0.125 -0.239718 -0.036701 
-0.125 -0.213925 -0.0123604 
-0.125 -0.12705 0.000224039 
-0.125 0.0374971 0.0102724 
-0.125 -0.0785203 0.00791424 
-0.125 -0.0822242 0.0347525 
-0.125 -0.0301345 0.0535905 
-0.125 -0.130218 0.0623248 
-0.125 0.0421737 0.0520176 
-0.125 -0.162527 -0.0181075 
-0.125 0.105814 0.0471472 
-0.125 -0.236725 0.0375937 
-0.125 -0.00568776 0.00996583 
-0.125 -0.0697355 -0.0068683 
-0.125 0.177373 0.0581669 
-0.125 -0.192109 -0.00175556 
-0.125 -0.0205473 0.00642549 
-0.125 -0.20296 -0.0411544 
-0.125 -0.148169 0.0236817 
-0.125 -0.20463 0.0527283 
-0.125 -0.0471186 0.0183116 
-0.125 -0.220144 0.0237856 
-0.125 0.125874 0.0497698 
-0.125 -0.0632515 0.0490458 
-0.125 -0.174312 0.0583605 
-0.125 -0.157937 -0.038996 
-0.125 -0.117413 0.0312738 
-0.125 -0.237358 -0.0369925 
-0.125 -0.0612742 0.0361712 
-0.125 -0.216818 -0.0269396 
-0.125 -0.240581 -0.0492986 
-0.125 -0.130379 0.0130712 
-0.125 -0.167157 -0.0312961 
-0.125 0.0063362 0.0483274 
-0.125 0.0427256 0.0555342 
-0.125 -0.128798 -0.00111881 
-0.125 -0.166665 -0.0176779 
-0.125 -0.137595 0.0547322 
-0.125 0.0497426 0.029891 
-0.125 0.0149459 0.0492166 
-0.125 -0.0928259 0.0474454 
-0.125 -0.18469 -0.0321261 
-0.125 -0.17848 -0.0362329 
-0.125 -0.125049 0.0465892 
-0.125 0.184952 0.0594581 
-0.125 -0.239679 -0.00700118 
-0.125 -0.105474 0.0380856 
-0.125 -0.0631763 0.0189226 
-0.125 -0.220245 -0.00728263 
-0.125 0.0479478 0.0235354 
-0.125 -0.0505372 0.0123537 
-0.125 -0.116666 0.00948237 
-0.125 -0.0612656 0.00946174 
-0.125 0.174348 0.0561641 
-0.125 -0.201905 -0.0127405 
-0.125 -0.057202 0.00335648 
-0.125 -0.124279 -0.0199767 
-0.125 0.16987 0.0492062 
-0.125 -0.229948 0.0512535 
-0.125 -0.18995 0.0181745 
-0.125 -0.143837 0.0291559 
-0.125 -0.122151 0.0353035 
-0.125 0.0149404 0.0373993 
-0.125 -0.0383306 0.0164151 
-0.125 0.0361844 0.0160824 
-0.125 -0.214768 -0.0277319 
-0.125 0.03098 0.0175531 
-0.125 -0.100843 -0.0251782 
-0.125 -0.0484888 -0.0106414 
-0.125 0.0860027 0.0286002 
-0.125 -0.247928 -0.0417707 
-0.125 -0.215461 -0.0220746 
-0.125 0.124955 0.0425021 
-0.125 0.0604471 0.0168782 
-0.125 -0.189971 -0.00292142 
-0.125 -0.149277 0.0397772 
-0.125 -0.231334 -0.00973031 
-0.125 -0.0316834 0.0520951 
-0.125 -0.0315034 -0.00536456 
-0.125 0.18779 0.0529159 
-0.125 -0.175466 0.0105049 
-0.125 0.165814 0.0494255 
-0.125 0.0332781 0.0623862 
-0.125 -0.194269 -0.0187651 
-0.125 -0.0518096 0.0222006 
-0.125 -0.0790345 0.0165451 
-0.125 -0.215278 0.0228461 
-0.125 -0.198111 0.034421 
-0.125 0.0228736 0.0338294 
-0.125 0.0419112 0.0484895 
-0.125 -0.103568 0.028186 
-0.125 0.149558 0.058165 
-0.125 -0.224554 -0.0287662 
-0.125 -0.175354 -0.00181082 
-0.125 -0.124631 0.0584749 
-0.125 -0.219192 -0.0133012 
-0.125 -0.00925486 0.0531279 
-0.125 -0.00806518 0.0158401 
-0.125 -0.0194577 0.0046073 
-0.125 -0.233515 -0.00435449 
-0.125 -0.248619 -0.0480425 
-0.125 -0.179256 -5.94333e-05 
-0.125 0.10705 0.038411 
-0.125 -0.0573064 0.0387317 
-0.125 0.0389879 0.0307243 
-0.125 -0.24008 -0.00346314 
-0.125 0.0323125 0.0433078 
-0.125 -0.196952 -0.0385975 
-0.125 0.0130063 0.0190734 
-0.125 -0.10009 0.00431765 
-0.125 -0.0597087 -0.00800293 
-0.125 -0.121322 0.0393507 
-0.125 -0.148707 -0.0100143 
-0.125 0.0433184 0.0571555 
-0.125 0.0440501 0.0440795 
-0.125 -0.17189 -0.0390886 
-0.125 -0.105921 -0.0202103 
-0.125 0.062166 0.030913 
-0.125 -0.160597 -0.0105678 
-0.125 -0.143761 0.0233699 
-0.125 -0.151449 -0.0278546 
-0.125 -0.15528 -0.000531046 
-0.125 -0.0604259 0.0494431 
-0.125 0.181164 0.0526842 
-0.125 -0.0244522 0.0574332 
-0.125 -0.147766 0.00719672 
-0.125 -0.101092 0.0459522 
-0.125 0.0518542 0.0492997 
-0.125 0.12199 0.0384386 
-0.125 -0.215747 0.0273634 
-0.125 -0.0895045 0.0482784 
-0.125 0.165503 0.0504523 
-0.125 0.00694926 0.0428745 
-0.125 0.0105213 0.0245883 
-0.125 0.00394882 0.00196491 
-0.125 -0.104235 0.01399 
-0.125 -0.150113 -0.00288801 
-0.125 -0.207221 0.0413523 
-0.125 -0.245969 -0.0343712 
-0.125 -0.110862 0.0250301 
-0.125 -0.048497 0.0164427 
-0.125 -0.0444412 0.0618144 
-0.125 0.114721 0.0591602 
-0.125 -0.190492 7.20927e-05 
-0.125 -0.077305 0.0147448 
-0.125 -0.116861 0.0549849 
-0.125 -0.093793 -0.00822488 
-0.125 0.0084594 0.0523203 
-0.125 -0.210534 -0.0311633 
-0.125 -0.171699 -0.00698261 
-0.125 0.208082 0.0548046 
-0.125 -0.232787 -0.00661352 
-0.125 -0.24678 -0.0222507 
-0.125 -0.107477 0.0284469 
-0.125 -0.160379 0.0290894 
-0.125 -0.109927 0.0616672 
-0.125 -0.131337 -0.00209242 
-0.125 -0.0129456 0.0488471 
-0.125 -0.0746321 0.0049037 
-0.125 -0.233465 0.0518794 
-0.125 -0.173501 0.044662 
-0.125 -0.0291158 0.00673817 
-0.125 0.0968299 0.0486271 
-0.125 0.131457 0.0513188 
-0.125 -0.183451 0.0606136 
-0.125 -0.144074 0.00751992 
-0.125 -0.0236932 0.0312497 
-0.125 -0.000642374 0.0552114 
-0.125 -0.249446 0.0316081 
-0.125 -0.173458 0.0471273 
-0.125 -0.0781999 0.0565582 
-0.125 0.203364 0.0517334 
-0.125 0.102807 0.0471567 
-0.125 -0.207267 0.0294477 
-0.125 0.206675 0.0582271 
-0.125 0.0737705 0.0564282 
-0.125 -0.178138 -0.0226828 
-0.125 -0.171237 -0.0361138 
-0.125 -0.175741 0.0591627 
-0.125 -0.145942 0.0333808 
-0.125 -0.125885 -0.0293104 
-0.125 -0.094033 0.0457391 
-0.125 -0.0769895 0.0243036 
-0.125 -0.183411 0.00841692 
-0.125 -0.203829 0.0004534 
-0.125 -0.0438715 0.0391159 
-0.125 -0.0139003 0.00923518 
-0.125 -0.181182 0.00519906 
-0.125 -0.108854 0.0348305 
-0.125 -0.195552 0.035524 
-0.125 -0.208465 0.0204869 
-0.125 -0.0960688 -3.47644e-05 
-0.125 -0.243894 -0.0095576 
-0.125 -0.244314 0.0540835 
-0.125 -0.128828 -0.0308131 
-0.125 0.0974411 0.0387919 
-0.125 -0.107914 0.0250135 
-0.125 0.100342 0.0322343 
-0.125 0.0652767 0.0496349 
-0.125 -0.114875 -0.0141985 
-0.125 -0.20214 -0.00484559 
-0.125 -0.177776 0.0213222 
-0.125 -0.0455924 0.0274126 
-0.125 -0.0206304 0.0562501 
-0.125 -0.154566 -0.00384586 
-0.125 -0.175348 -0.034388 
-0.125 -0.157029 0.00311771 
-0.125 0.166403 0.0612031 
-0.125 -0.184944 0.0504982 
-0.125 0.0410698 0.0596161 
-0.125 0.0714085 0.0418384 
-0.125 0.0144359 0.0364712 
-0.125 -0.11083 0.0226426 
-0.125 0.0170558 0.0389671 
-0.125 -0.248681 -0.0369721 
-0.125 -0.164895 0.0498981 
-0.125 -0.240365 -0.0159194 
-0.125 0.216852 0.057499 
-0.125 -0.159032 -0.017724 
-0.125 0.0708337 0.0362356 
-0.125 -0.0376946 0.0604857 
-0.125 0.0326841 0.0239099 
-0.125 0.123312 0.061634 
-0.125 -0.193339 0.0490679 
-0.125 -0.249978 0.0179924 
-0.125 -0.0224486 0.031576 
-0.125 -0.0374123 0.0479793 
-0.125 -0.10847 0.0565073 
-0.125 -0.221575 0.0394703 
-0.125 0.0148578 0.0304255 
-0.125 0.166655 0.0570472 
-0.125 0.0780588 0.023316 
-0.125 -0.201941 0.013821 
-0.125 -0.180016 -0.0111683 
-0.125 -0.133118 0.0603616 
-0.125 -0.228629 0.00219011 
-0.125 -0.21722 -0.025415 
-0.125 -0.146318 0.0208324 
-0.125 -0.0179293 0.027845 
-0.125 -0.193958 -0.0198707 
-0.125 -0.16335 0.022427 
-0.125 0.152345 0.0624844 
-0.125 -0.0402914 0.0516538 
-0.125 -0.066071 0.0450059 
-0.125 -0.249017 -0.0268323 
-0.125 -0.181086 0.035341 
-0.125 -0.10529 0.00658177 
-0.125 0.0987441 0.0578935 
-0.125 -0.244831 -0.0308744 
-0.125 -0.00399485 0.0556879 
-0.125 -0.0424383 0.0229705 
-0.125 0.0924029 0.0315768 
-0.125 -0.0282175 0.0337136 
-0.125 -0.207208 0.0623919 
-0.125 -0.0806081 -0.0159543 
-0.125 -0.16235 -0.015939 
-0.125 -0.121224 -0.020649 
-0.125 0.0467617 0.0232014 
-0.125 -0.212613 -0.0289037 
-0.125 -0.245524 -0.0354163 
-0.125 -0.0160366 0.0360864 
-0.125 0.152238 0.0436321 
-0.125 0.0217815 0.021991 
-0.125 -0.220513 -0.0126059 
-0.125 -0.208408 -0.0281433 
-0.125 -0.0394382 -0.00256011 
-0.125 0.074783 0.0480577 
-0.125 -0.136674 -0.00881961 
-0.125 -0.214213 0.0189562 
-0.125 0.0225136 0.0495176 
-0.125 -0.0857297 0.0313046 
-0.125 0.176341 0.0440968 
-0.125 -0.00333108 0.0510719 
-0.125 -0.235121 -0.00445498 
-0.125 -0.0873961 0.0606599 
-0.125 -0.0777053 0.040167 
-0.125 -0.131239 0.0468983 
-0.125 -0.21353 -0.0115068 
-0.125 -0.157354 -0.0327302 
-0.125 0.0907096 0.0567149 
-0.125 0.0660834 0.0495775 
-0.125 -0.0858519 -0.016369 
-0.125 -0.143713 0.0416916 
-0.125 -0.151535 0.0310155 
-0.125 0.00209098 0.0514377 
-0.125 0.0132267 0.0556697 
-0.125 -0.148462 -0.00561497 
-0.125 -0.146836 0.052047 
-0.125 -0.169383 -0.00476588 
-0.125 -0.159084 -0.00102618 
-0.125 -0.135833 -0.000342028 
-0.125 -0.0431155 -0.00935351 
-0.125 0.0370406 0.0224712 
-0.125 0.00896873 0.043172 
-0.125 0.0119012 0.0123169 
-0.125 -0.19113 -0.0413898 
-0.125 -0.0871559 -0.0175152 
-0.125 -0.207919 0.0113456 
-0.125 0.0329416 0.0308599 
-0.125 -0.0317645 -0.00529638 
-0.125 0.0168301 0.0227191 
-0.125 -0.114721 0.0518538 
-0.125 -0.0642218 0.0156472 
-0.125 -0.102454 0.0255053 
-0.125 -0.122662 -0.00921936 
-0.125 -0.218661 -0.0307729 
-0.125 -0.213659 -0.00944178 
-0.125 -0.0277952 0.0075842 
-0.125 -0.10821 0.013886 
-0.125 -0.00321642 0.0239759 
-0.125 -0.05853 -0.00434126 
-0.125 -0.0524706 0.0562069 
-0.125 -0.21852 0.0556883 
-0.125 -0.0774896 0.0293134 
-0.125 -0.0502653 0.00718031 
-0.125 -0.187828 -0.0309516 
-0.125 -0.0993433 -0.00160734 
-0.125 -0.0671752 0.0541178 
-0.125 0.0511352 0.0612397 
-0.125 -0.0896886 -0.00355417 
-0.125 0.00221579 0.0433115 
-0.125 -0.215047 0.0558801 
-0.125 -0.174835 0.0232141 
-0.125 -0.0736981 0.0363949 
-0.125 -0.195154 -0.0286944 
-0.125 -0.0932782 -0.0195927 
-0.125 -0.0737019 -0.0146911 
-0.125 -0.215948 0.00611472 
-0.125 0.0130133 0.039667 
-0.125 -0.206091 -0.0343718 
-0.125 0.0565937 0.0578623 
-0.125 0.0182073 0.0191117 
-0.125 0.0761306 0.0351965 
-0.125 -0.00142927 0.00976127 
-0.125 -0.183141 0.0146024 
-0.125 -0.200711 0.00779034 
-0.125 0.0690408 0.0471578 
-0.125 -0.0708122 0.0171602 
-0.125 -0.138702 -0.00993039 
-0.125 -0.0106475 0.0516566 
-0.125 -0.173316 0.0207523 
-0.125 0.138271 0.0585635 
-0.125 -0.207821 0.0554061 
-0.125 -0.134257 0.032619 
-0.125 -0.0916448 0.027457 
-0.125 -0.117112 -0.00944974 
-0.125 0.0409937 0.048839 
-0.125 -0.16594 0.0331389 
-0.125 -0.0428048 0.015623 
-0.125 -0.101186 -0.0143272 
-0.125 -0.171493 0.0324882 
-0.125 -0.0902875 0.0357322 
-0.125 -0.193999 0.0176684 
-0.125 -0.109031 0.0406507 
-0.125 0.0224804 0.0435254 
-0.125 -0.102192 -0.00292607 
-0.125 -0.111341 0.0100386 
-0.125 -0.18927 0.039064 
-0.125 -0.190594 -0.0334813 
-0.125 -0.0458912 0.049241 
-0.125 -0.179489 0.0172323 
-0.125 0.0245828 0.040447 
-0.125 -0.141732 -0.0277046 
-0.125 0.0514318 0.0556799 
-0.125 -0.146329 0.00018964 
-0.125 -0.151726 -0.000438178 
-0.125 0.0767131 0.0248503 
