ply
format ascii 1.0
comment Created by CloudCompare v2.11.3 (Anoia)
comment Created 7/26/25 9:39 PM
obj_info Generated by CloudCompare!
element vertex 806
property float x
property float y
property float z
property float nx
property float ny
property float nz
end_header
-0.05 -0.0159462 1.18054 -0.999999 0.000977516 0.000977516 
-0.05 -0.0423744 1.16898 -0.999999 0.000977516 0.000977516 
-0.05 -0.0446799 1.13317 -0.999999 0.000977516 0.000977516 
-0.05 -0.0332028 1.16277 -0.999999 0.000977516 0.000977516 
-0.05 -0.0145343 1.19925 -0.999999 0.000977516 0.000977516 
-0.05 -0.0462199 1.16466 -0.999999 0.000977516 0.000977516 
-0.05 0.0352316 1.20879 -0.999999 0.000977516 0.000977516 
-0.05 0.0378123 1.21402 -0.999999 0.000977516 0.000977516 
-0.05 -0.0305623 1.17548 -0.999999 0.000977516 0.000977516 
-0.05 -0.0264621 1.15571 -0.999999 0.000977516 0.000977516 
-0.05 -0.0137194 1.19418 -0.999999 0.000977516 0.000977516 
-0.05 -0.019985 1.19365 -0.999999 0.000977516 0.000977516 
-0.05 0.00769901 1.20103 -0.999999 0.000977516 0.000977516 
-0.05 -0.0387842 1.19444 -0.999999 0.000977516 0.000977516 
-0.05 -0.0271112 1.17341 -0.999999 0.000977516 0.000977516 
-0.05 -0.00513468 1.17535 -0.999999 0.000977516 0.000977516 
-0.05 -0.0125345 1.18092 -0.999999 0.000977516 0.000977516 
-0.05 -0.0411606 1.16999 -0.999999 0.000977516 0.000977516 
-0.05 -0.00535256 1.16565 -0.999999 0.000977516 0.000977516 
-0.05 0.0409046 1.21364 -0.999999 0.000977516 0.000977516 
-0.05 0.0212241 1.19564 -0.999999 0.000977516 0.000977516 
-0.05 -0.0152542 1.18466 -0.999999 0.000977516 0.000977516 
-0.05 0.00159868 1.19745 -0.999999 0.000977516 0.000977516 
-0.05 -0.04754 1.15073 -0.999999 0.000977516 0.000977516 
-0.05 -0.0123755 1.18625 -0.999999 0.000977516 0.000977516 
-0.05 -0.0185694 1.16593 -0.999999 0.000977516 0.000977516 
-0.05 -0.0399974 1.13727 -0.999999 0.000977516 0.000977516 
-0.05 0.0266994 1.20596 -0.999999 0.000977516 0.000977516 
-0.05 0.0103256 1.18103 -0.999999 0.000977516 0.000977516 
-0.05 -0.0323752 1.14634 -0.999999 0.000977516 0.000977516 
-0.05 -0.0130445 1.15772 -0.999999 0.000977516 0.000977516 
-0.05 0.00057603 1.16558 -0.999999 0.000977516 0.000977516 
-0.05 0.00920713 1.17974 -0.999999 0.000977516 0.000977516 
-0.05 -0.0374597 1.12786 -0.999999 0.000977516 0.000977516 
-0.05 -0.0396989 1.16372 -0.999999 0.000977516 0.000977516 
-0.05 0.000462435 1.17148 -0.999999 0.000977516 0.000977516 
-0.05 -0.0460026 1.18369 -0.999999 0.000977516 0.000977516 
-0.05 -0.0459237 1.13071 -0.999999 0.000977516 0.000977516 
-0.05 -0.0317962 1.20005 -0.999999 0.000977516 0.000977516 
-0.05 0.0293077 1.19465 -0.999999 0.000977516 0.000977516 
-0.05 -0.0457125 1.15392 -0.999999 0.000977516 0.000977516 
-0.05 -0.0399673 1.15967 -0.999999 0.000977516 0.000977516 
-0.05 0.0249634 1.21238 -0.999999 0.000977516 0.000977516 
-0.05 -0.0275902 1.20999 -0.999999 0.000977516 0.000977516 
-0.05 -0.0151558 1.18653 -0.999999 0.000977516 0.000977516 
-0.05 0.0166275 1.19648 -0.999999 0.000977516 0.000977516 
-0.05 -0.0127391 1.16249 -0.999999 0.000977516 0.000977516 
-0.05 -0.0482715 1.17867 -0.999999 0.000977516 0.000977516 
-0.05 -0.0239984 1.15768 -0.999999 0.000977516 0.000977516 
-0.05 -0.0414537 1.12936 -0.999999 0.000977516 0.000977516 
-0.05 -0.0266522 1.14761 -0.999999 0.000977516 0.000977516 
-0.05 0.00268371 1.18264 -0.999999 0.000977516 0.000977516 
-0.05 -0.0379419 1.21152 -0.999999 0.000977516 0.000977516 
-0.05 -0.0433447 1.16325 -0.999999 0.000977516 0.000977516 
-0.05 -0.0027106 1.1925 -0.999999 0.000977516 0.000977516 
-0.05 -0.0274936 1.19581 -0.999999 0.000977516 0.000977516 
-0.05 -0.0401425 1.14843 -0.999999 0.000977516 0.000977516 
-0.05 -0.0395069 1.15347 -0.999999 0.000977516 0.000977516 
-0.05 0.0205483 1.18863 -0.999999 0.000977516 0.000977516 
-0.05 -0.0119236 1.19186 -0.999999 0.000977516 0.000977516 
-0.05 -0.00448472 1.16567 -0.999999 0.000977516 0.000977516 
-0.05 -0.036795 1.16365 -0.999999 0.000977516 0.000977516 
-0.05 -0.0455749 1.21135 -0.999999 0.000977516 0.000977516 
-0.05 -0.0210631 1.20314 -0.999999 0.000977516 0.000977516 
-0.05 -0.0369558 1.17078 -0.999999 0.000977516 0.000977516 
-0.05 -0.0117366 1.1888 -0.999999 0.000977516 0.000977516 
-0.05 0.0206571 1.19963 -0.999999 0.000977516 0.000977516 
-0.05 -0.028274 1.14697 -0.999999 0.000977516 0.000977516 
-0.05 -0.022605 1.17999 -0.999999 0.000977516 0.000977516 
-0.05 -0.0147556 1.20887 -0.999999 0.000977516 0.000977516 
-0.05 -0.0294117 1.1363 -0.999999 0.000977516 0.000977516 
-0.05 0.0124944 1.19103 -0.999999 0.000977516 0.000977516 
-0.05 -0.0494062 1.20358 -0.999999 0.000977516 0.000977516 
-0.05 0.0182615 1.1957 -0.999999 0.000977516 0.000977516 
-0.05 -0.0452716 1.20838 -0.999999 0.000977516 0.000977516 
-0.05 0.00889478 1.20276 -0.999999 0.000977516 0.000977516 
-0.05 0.00550053 1.17064 -0.999999 0.000977516 0.000977516 
-0.05 -0.0459512 1.20142 -0.999999 0.000977516 0.000977516 
-0.05 -0.0253647 1.19501 -0.999999 0.000977516 0.000977516 
-0.05 -0.0134025 1.19499 -0.999999 0.000977516 0.000977516 
-0.05 -0.0068427 1.2141 -0.999999 0.000977516 0.000977516 
-0.05 0.00946217 1.21185 -0.999999 0.000977516 0.000977516 
-0.05 0.0095279 1.18957 -0.999999 0.000977516 0.000977516 
-0.05 -0.0159726 1.21498 -0.999999 0.000977516 0.000977516 
-0.05 -0.0287628 1.16421 -0.999999 0.000977516 0.000977516 
-0.05 -0.0410981 1.1241 -0.999999 0.000977516 0.000977516 
-0.05 0.0235731 1.19015 -0.999999 0.000977516 0.000977516 
-0.05 -0.0411246 1.19993 -0.999999 0.000977516 0.000977516 
-0.05 -0.036373 1.13189 -0.999999 0.000977516 0.000977516 
-0.05 -0.0274626 1.18532 -0.999999 0.000977516 0.000977516 
-0.05 0.0242977 1.20824 -0.999999 0.000977516 0.000977516 
-0.05 -0.0409483 1.15044 -0.999999 0.000977516 0.000977516 
-0.05 -0.0122104 1.164 -0.999999 0.000977516 0.000977516 
-0.05 -0.0457417 1.17626 -0.999999 0.000977516 0.000977516 
-0.05 -0.0483943 1.19842 -0.999999 0.000977516 0.000977516 
-0.05 0.00958811 1.19463 -0.999999 0.000977516 0.000977516 
-0.05 -0.0283724 1.1724 -0.999999 0.000977516 0.000977516 
-0.05 -0.0271563 1.16772 -0.999999 0.000977516 0.000977516 
-0.05 -0.0384942 1.1679 -0.999999 0.000977516 0.000977516 
-0.05 -0.0225738 1.17845 -0.999999 0.000977516 0.000977516 
-0.05 -0.0361938 1.13622 -0.999999 0.000977516 0.000977516 
-0.05 -0.0314689 1.15861 -0.999999 0.000977516 0.000977516 
-0.05 -0.0468862 1.18515 -0.999999 0.000977516 0.000977516 
-0.05 -0.016003 1.18056 -0.999999 0.000977516 0.000977516 
-0.05 0.00833729 1.19701 -0.999999 0.000977516 0.000977516 
-0.05 -0.040457 1.20096 -0.999999 0.000977516 0.000977516 
-0.05 -0.034942 1.18087 -0.999999 0.000977516 0.000977516 
-0.05 -0.0494135 1.13292 -0.999999 0.000977516 0.000977516 
-0.05 -0.0436636 1.18323 -0.999999 0.000977516 0.000977516 
-0.05 -0.0260418 1.14882 -0.999999 0.000977516 0.000977516 
-0.05 -0.0463972 1.1668 -0.999999 0.000977516 0.000977516 
-0.05 -0.028251 1.18796 -0.999999 0.000977516 0.000977516 
-0.05 -0.0211576 1.19922 -0.999999 0.000977516 0.000977516 
-0.05 -0.0345623 1.19133 -0.999999 0.000977516 0.000977516 
-0.05 0.0068323 1.18075 -0.999999 0.000977516 0.000977516 
-0.05 0.0312389 1.20211 -0.999999 0.000977516 0.000977516 
-0.05 -0.0360478 1.18494 -0.999999 0.000977516 0.000977516 
-0.05 -0.0421263 1.15465 -0.999999 0.000977516 0.000977516 
-0.05 -0.0168432 1.1888 -0.999999 0.000977516 0.000977516 
-0.05 0.00752763 1.19499 -0.999999 0.000977516 0.000977516 
-0.05 -0.0472098 1.16259 -0.999999 0.000977516 0.000977516 
-0.05 -0.0429007 1.18344 -0.999999 0.000977516 0.000977516 
-0.05 0.0391215 1.20758 -0.999999 0.000977516 0.000977516 
-0.05 -0.0418645 1.19488 -0.999999 0.000977516 0.000977516 
-0.05 -0.0302994 1.14374 -0.999999 0.000977516 0.000977516 
-0.05 -0.0242397 1.14249 -0.999999 0.000977516 0.000977516 
-0.05 0.0226327 1.20851 -0.999999 0.000977516 0.000977516 
-0.05 -0.0362341 1.16313 -0.999999 0.000977516 0.000977516 
-0.05 -0.0304745 1.14305 -0.999999 0.000977516 0.000977516 
-0.05 0.0316397 1.2146 -0.999999 0.000977516 0.000977516 
-0.05 -0.0429785 1.12369 -0.999999 0.000977516 0.000977516 
-0.05 -0.00963338 1.20658 -0.999999 0.000977516 0.000977516 
-0.05 0.0101807 1.2138 -0.999999 0.000977516 0.000977516 
-0.05 -0.0271282 1.16013 -0.999999 0.000977516 0.000977516 
-0.05 -0.0284438 1.17723 -0.999999 0.000977516 0.000977516 
-0.05 -0.0499875 1.12442 -0.999999 0.000977516 0.000977516 
-0.05 -0.047426 1.16069 -0.999999 0.000977516 0.000977516 
-0.05 -0.0479169 1.1548 -0.999999 0.000977516 0.000977516 
-0.05 0.0205002 1.19285 -0.999999 0.000977516 0.000977516 
-0.05 -0.00117003 1.20435 -0.999999 0.000977516 0.000977516 
-0.05 0.0348425 1.20247 -0.999999 0.000977516 0.000977516 
-0.05 -0.0122522 1.19902 -0.999999 0.000977516 0.000977516 
-0.05 0.0423035 1.21196 -0.999999 0.000977516 0.000977516 
-0.05 -0.0055761 1.17806 -0.999999 0.000977516 0.000977516 
-0.05 -0.0179808 1.19196 -0.999999 0.000977516 0.000977516 
-0.05 0.0233083 1.19827 -0.999999 0.000977516 0.000977516 
-0.05 0.0026242 1.1972 -0.999999 0.000977516 0.000977516 
-0.05 -0.0136067 1.20475 -0.999999 0.000977516 0.000977516 
-0.05 0.0124829 1.18102 -0.999999 0.000977516 0.000977516 
-0.05 -0.0296036 1.17036 -0.999999 0.000977516 0.000977516 
-0.05 -0.0263725 1.18582 -0.999999 0.000977516 0.000977516 
-0.05 -0.0417535 1.16329 -0.999999 0.000977516 0.000977516 
-0.05 -0.0185284 1.2066 -0.999999 0.000977516 0.000977516 
-0.05 -0.0200914 1.17814 -0.999999 0.000977516 0.000977516 
-0.05 -0.049406 1.17853 -0.999999 0.000977516 0.000977516 
-0.05 -0.00637593 1.17675 -0.999999 0.000977516 0.000977516 
-0.05 -0.0424112 1.15975 -0.999999 0.000977516 0.000977516 
-0.05 -0.0480454 1.13155 -0.999999 0.000977516 0.000977516 
-0.05 -0.004975 1.20352 -0.999999 0.000977516 0.000977516 
-0.05 -0.0369222 1.21109 -0.999999 0.000977516 0.000977516 
-0.05 -0.0399065 1.20642 -0.999999 0.000977516 0.000977516 
-0.05 0.0332495 1.20418 -0.999999 0.000977516 0.000977516 
-0.05 0.0121781 1.20572 -0.999999 0.000977516 0.000977516 
-0.05 0.0103438 1.20121 -0.999999 0.000977516 0.000977516 
-0.05 -0.0440746 1.1745 -0.999999 0.000977516 0.000977516 
-0.05 -0.0172761 1.18814 -0.999999 0.000977516 0.000977516 
-0.05 0.0158275 1.20207 -0.999999 0.000977516 0.000977516 
-0.05 -0.0215344 1.1546 -0.999999 0.000977516 0.000977516 
-0.05 -0.00676025 1.17653 -0.999999 0.000977516 0.000977516 
-0.05 -0.0328748 1.16925 -0.999999 0.000977516 0.000977516 
-0.05 -0.0316782 1.15953 -0.999999 0.000977516 0.000977516 
-0.05 -0.0483531 1.1301 -0.999999 0.000977516 0.000977516 
-0.05 -0.0310366 1.16348 -0.999999 0.000977516 0.000977516 
-0.05 -0.00375422 1.20884 -0.999999 0.000977516 0.000977516 
-0.05 -0.0189494 1.20693 -0.999999 0.000977516 0.000977516 
-0.05 -0.0295939 1.14448 -0.999999 0.000977516 0.000977516 
-0.05 -0.0420184 1.17582 -0.999999 0.000977516 0.000977516 
-0.05 0.0464818 1.21316 -0.999999 0.000977516 0.000977516 
-0.05 -0.00898293 1.18337 -0.999999 0.000977516 0.000977516 
-0.05 -0.0310476 1.14735 -0.999999 0.000977516 0.000977516 
-0.05 -0.0327514 1.18856 -0.999999 0.000977516 0.000977516 
-0.05 -0.0335543 1.2033 -0.999999 0.000977516 0.000977516 
-0.05 -0.0463441 1.19865 -0.999999 0.000977516 0.000977516 
-0.05 -0.0366567 1.18568 -0.999999 0.000977516 0.000977516 
-0.05 -0.0423051 1.20149 -0.999999 0.000977516 0.000977516 
-0.05 -0.0495685 1.19755 -0.999999 0.000977516 0.000977516 
-0.05 -0.0282933 1.15849 -0.999999 0.000977516 0.000977516 
-0.05 -0.0401001 1.14191 -0.999999 0.000977516 0.000977516 
-0.05 -0.0236634 1.19674 -0.999999 0.000977516 0.000977516 
-0.05 -0.014509 1.1811 -0.999999 0.000977516 0.000977516 
-0.05 -0.0420224 1.17037 -0.999999 0.000977516 0.000977516 
-0.05 -0.0278041 1.20748 -0.999999 0.000977516 0.000977516 
-0.05 0.0164828 1.1906 -0.999999 0.000977516 0.000977516 
-0.05 -0.0439178 1.17296 -0.999999 0.000977516 0.000977516 
-0.05 -0.00175344 1.20133 -0.999999 0.000977516 0.000977516 
-0.05 0.0124516 1.19327 -0.999999 0.000977516 0.000977516 
-0.05 -0.0131373 1.17316 -0.999999 0.000977516 0.000977516 
-0.05 -0.0384196 1.18587 -0.999999 0.000977516 0.000977516 
-0.05 -0.012378 1.17552 -0.999999 0.000977516 0.000977516 
-0.05 -0.0159328 1.18181 -0.999999 0.000977516 0.000977516 
-0.05 -0.0360771 1.13207 -0.999999 0.000977516 0.000977516 
-0.05 -0.00643976 1.19598 -0.999999 0.000977516 0.000977516 
-0.05 -0.0425613 1.1941 -0.999999 0.000977516 0.000977516 
-0.05 -0.0036649 1.20365 -0.999999 0.000977516 0.000977516 
-0.05 -0.00153644 1.20191 -0.999999 0.000977516 0.000977516 
-0.05 -0.0410402 1.1758 -0.999999 0.000977516 0.000977516 
-0.05 -0.0366123 1.13348 -0.999999 0.000977516 0.000977516 
-0.05 -0.049297 1.20613 -0.999999 0.000977516 0.000977516 
-0.05 -0.0410792 1.1408 -0.999999 0.000977516 0.000977516 
-0.05 -0.015052 1.20916 -0.999999 0.000977516 0.000977516 
-0.05 -0.0362583 1.17384 -0.999999 0.000977516 0.000977516 
-0.05 -0.0446537 1.20448 -0.999999 0.000977516 0.000977516 
-0.05 -0.0355934 1.20206 -0.999999 0.000977516 0.000977516 
-0.05 -0.0455873 1.14291 -0.999999 0.000977516 0.000977516 
-0.05 0.00790935 1.1824 -0.999999 0.000977516 0.000977516 
-0.05 -0.0158606 1.16112 -0.999999 0.000977516 0.000977516 
-0.05 -0.0172478 1.16628 -0.999999 0.000977516 0.000977516 
-0.05 -0.00764361 1.17347 -0.999999 0.000977516 0.000977516 
-0.05 -0.00904161 1.20181 -0.999999 0.000977516 0.000977516 
-0.05 0.0105955 1.18368 -0.999999 0.000977516 0.000977516 
-0.05 -0.0368592 1.16052 -0.999999 0.000977516 0.000977516 
-0.05 0.0456798 1.21163 -0.999999 0.000977516 0.000977516 
-0.05 -0.019254 1.17943 -0.999999 0.000977516 0.000977516 
-0.05 -0.0256102 1.20301 -0.999999 0.000977516 0.000977516 
-0.05 0.0272234 1.21348 -0.999999 0.000977516 0.000977516 
-0.05 -0.0129486 1.17384 -0.999999 0.000977516 0.000977516 
-0.05 0.0158623 1.18362 -0.999999 0.000977516 0.000977516 
-0.05 -0.0210006 1.16297 -0.999999 0.000977516 0.000977516 
-0.05 -0.0484533 1.14168 -0.999999 0.000977516 0.000977516 
-0.05 0.0163899 1.18767 -0.999999 0.000977516 0.000977516 
-0.05 0.000812866 1.17164 -0.999999 0.000977516 0.000977516 
-0.05 -0.000327237 1.18441 -0.999999 0.000977516 0.000977516 
-0.05 -0.0209403 1.17791 -0.999999 0.000977516 0.000977516 
-0.05 0.0121849 1.18839 -0.999999 0.000977516 0.000977516 
-0.05 -0.0221102 1.18422 -0.999999 0.000977516 0.000977516 
-0.05 -0.0192893 1.15774 -0.999999 0.000977516 0.000977516 
-0.05 -0.017883 1.17005 -0.999999 0.000977516 0.000977516 
-0.05 0.0407673 1.20868 -0.999999 0.000977516 0.000977516 
-0.05 -0.0271443 1.20954 -0.999999 0.000977516 0.000977516 
-0.05 -0.018127 1.20972 -0.999999 0.000977516 0.000977516 
-0.05 -0.0245172 1.19037 -0.999999 0.000977516 0.000977516 
-0.05 -0.00224046 1.18742 -0.999999 0.000977516 0.000977516 
-0.05 0.0359938 1.20187 -0.999999 0.000977516 0.000977516 
-0.05 -0.0354105 1.18741 -0.999999 0.000977516 0.000977516 
-0.05 -0.0167669 1.18307 -0.999999 0.000977516 0.000977516 
-0.05 -0.0423293 1.16036 -0.999999 0.000977516 0.000977516 
-0.05 -0.0370665 1.14387 -0.999999 0.000977516 0.000977516 
-0.05 -0.0111278 1.2064 -0.999999 0.000977516 0.000977516 
-0.05 -0.0269274 1.16197 -0.999999 0.000977516 0.000977516 
-0.05 -0.000758756 1.21022 -0.999999 0.000977516 0.000977516 
-0.05 -0.029826 1.20159 -0.999999 0.000977516 0.000977516 
-0.05 0.00442248 1.20171 -0.999999 0.000977516 0.000977516 
-0.05 -0.0318524 1.17853 -0.999999 0.000977516 0.000977516 
-0.05 -0.0388419 1.15943 -0.999999 0.000977516 0.000977516 
-0.05 0.0182677 1.18586 -0.999999 0.000977516 0.000977516 
-0.05 -0.00909412 1.21318 -0.999999 0.000977516 0.000977516 
-0.05 -0.0498955 1.19138 -0.999999 0.000977516 0.000977516 
-0.05 -0.0123461 1.17784 -0.999999 0.000977516 0.000977516 
-0.05 -0.0337108 1.13947 -0.999999 0.000977516 0.000977516 
-0.05 -0.0406375 1.14034 -0.999999 0.000977516 0.000977516 
-0.05 -0.0141854 1.15437 -0.999999 0.000977516 0.000977516 
-0.05 0.0301531 1.20394 -0.999999 0.000977516 0.000977516 
-0.05 0.0401201 1.21254 -0.999999 0.000977516 0.000977516 
-0.05 0.0241407 1.19288 -0.999999 0.000977516 0.000977516 
-0.05 -0.0433127 1.18084 -0.999999 0.000977516 0.000977516 
-0.05 -0.0410368 1.14337 -0.999999 0.000977516 0.000977516 
-0.05 -0.0110885 1.16396 -0.999999 0.000977516 0.000977516 
-0.05 -0.00508095 1.1761 -0.999999 0.000977516 0.000977516 
-0.05 -0.0230911 1.16838 -0.999999 0.000977516 0.000977516 
-0.05 -0.0276441 1.1519 -0.999999 0.000977516 0.000977516 
-0.05 -0.0238988 1.18149 -0.999999 0.000977516 0.000977516 
-0.05 0.0302025 1.20166 -0.999999 0.000977516 0.000977516 
-0.05 -0.0305106 1.16872 -0.999999 0.000977516 0.000977516 
-0.05 -0.0344043 1.18436 -0.999999 0.000977516 0.000977516 
-0.05 -0.00958184 1.16482 -0.999999 0.000977516 0.000977516 
-0.05 0.0367571 1.2092 -0.999999 0.000977516 0.000977516 
-0.05 -0.0282363 1.183 -0.999999 0.000977516 0.000977516 
-0.05 -0.0426638 1.13211 -0.999999 0.000977516 0.000977516 
-0.05 0.0406665 1.21087 -0.999999 0.000977516 0.000977516 
-0.05 -0.0375654 1.13506 -0.999999 0.000977516 0.000977516 
-0.05 -0.0334068 1.1726 -0.999999 0.000977516 0.000977516 
-0.05 0.021733 1.19652 -0.999999 0.000977516 0.000977516 
-0.05 -0.000116087 1.18755 -0.999999 0.000977516 0.000977516 
-0.05 -0.0335112 1.15062 -0.999999 0.000977516 0.000977516 
-0.05 -0.043958 1.13656 -0.999999 0.000977516 0.000977516 
-0.05 -0.0100557 1.19533 -0.999999 0.000977516 0.000977516 
-0.05 -0.0484369 1.16545 -0.999999 0.000977516 0.000977516 
-0.05 -0.0487134 1.20278 -0.999999 0.000977516 0.000977516 
-0.05 -0.00681927 1.16407 -0.999999 0.000977516 0.000977516 
-0.05 -0.040279 1.18539 -0.999999 0.000977516 0.000977516 
-0.05 0.0373336 1.20638 -0.999999 0.000977516 0.000977516 
-0.05 -0.0310427 1.20569 -0.999999 0.000977516 0.000977516 
-0.05 -0.028127 1.14051 -0.999999 0.000977516 0.000977516 
-0.05 -0.0436522 1.16236 -0.999999 0.000977516 0.000977516 
-0.05 -0.0473858 1.18967 -0.999999 0.000977516 0.000977516 
-0.05 0.0111441 1.21037 -0.999999 0.000977516 0.000977516 
-0.05 -0.0066084 1.19235 -0.999999 0.000977516 0.000977516 
-0.05 -0.0194656 1.20766 -0.999999 0.000977516 0.000977516 
-0.05 0.0360356 1.21459 -0.999999 0.000977516 0.000977516 
-0.05 -0.0490004 1.2065 -0.999999 0.000977516 0.000977516 
-0.05 -0.048439 1.2023 -0.999999 0.000977516 0.000977516 
-0.05 0.0166773 1.18448 -0.999999 0.000977516 0.000977516 
-0.05 0.0019764 1.17155 -0.999999 0.000977516 0.000977516 
-0.05 0.00753025 1.1815 -0.999999 0.000977516 0.000977516 
-0.05 -0.0240042 1.14981 -0.999999 0.000977516 0.000977516 
-0.05 0.0310524 1.20773 -0.999999 0.000977516 0.000977516 
-0.05 -0.0405913 1.16345 -0.999999 0.000977516 0.000977516 
-0.05 -0.00467411 1.20594 -0.999999 0.000977516 0.000977516 
-0.05 -0.0352987 1.18517 -0.999999 0.000977516 0.000977516 
-0.05 0.0129979 1.20096 -0.999999 0.000977516 0.000977516 
-0.05 -0.00177199 1.19104 -0.999999 0.000977516 0.000977516 
-0.05 0.0250111 1.19287 -0.999999 0.000977516 0.000977516 
-0.05 0.00245994 1.1767 -0.999999 0.000977516 0.000977516 
-0.05 0.0264936 1.21408 -0.999999 0.000977516 0.000977516 
-0.05 -0.038817 1.20591 -0.999999 0.000977516 0.000977516 
-0.05 -0.0228679 1.15031 -0.999999 0.000977516 0.000977516 
-0.05 -0.0296633 1.18237 -0.999999 0.000977516 0.000977516 
-0.05 -0.0465433 1.18189 -0.999999 0.000977516 0.000977516 
-0.05 -0.0374356 1.19042 -0.999999 0.000977516 0.000977516 
-0.05 -0.0312329 1.16985 -0.999999 0.000977516 0.000977516 
-0.05 0.0277601 1.19552 -0.999999 0.000977516 0.000977516 
-0.05 0.025479 1.19138 -0.999999 0.000977516 0.000977516 
-0.05 -0.0146786 1.15745 -0.999999 0.000977516 0.000977516 
-0.05 -0.0213084 1.16491 -0.999999 0.000977516 0.000977516 
-0.05 -0.0187836 1.18518 -0.999999 0.000977516 0.000977516 
-0.05 -0.00677789 1.17623 -0.999999 0.000977516 0.000977516 
-0.05 -0.027575 1.14127 -0.999999 0.000977516 0.000977516 
-0.05 -0.0454893 1.14998 -0.999999 0.000977516 0.000977516 
-0.05 -0.0474277 1.14999 -0.999999 0.000977516 0.000977516 
-0.05 -0.040574 1.16184 -0.999999 0.000977516 0.000977516 
-0.05 0.0050802 1.175 -0.999999 0.000977516 0.000977516 
-0.05 -0.0205825 1.19662 -0.999999 0.000977516 0.000977516 
-0.05 0.013951 1.19076 -0.999999 0.000977516 0.000977516 
-0.05 -0.0210576 1.16068 -0.999999 0.000977516 0.000977516 
-0.05 -0.00841901 1.16919 -0.999999 0.000977516 0.000977516 
-0.05 -0.0402317 1.14133 -0.999999 0.000977516 0.000977516 
-0.05 -0.0094104 1.16194 -0.999999 0.000977516 0.000977516 
-0.05 -0.03395 1.19048 -0.999999 0.000977516 0.000977516 
-0.05 -0.027496 1.16861 -0.999999 0.000977516 0.000977516 
-0.05 0.00706337 1.20192 -0.999999 0.000977516 0.000977516 
-0.05 -0.0093778 1.1693 -0.999999 0.000977516 0.000977516 
-0.05 -0.00843095 1.21012 -0.999999 0.000977516 0.000977516 
-0.05 -0.0436757 1.18661 -0.999999 0.000977516 0.000977516 
-0.05 0.0158655 1.19702 -0.999999 0.000977516 0.000977516 
-0.05 -0.0446962 1.14984 -0.999999 0.000977516 0.000977516 
-0.05 -0.0135496 1.20445 -0.999999 0.000977516 0.000977516 
-0.05 0.00807812 1.20295 -0.999999 0.000977516 0.000977516 
-0.05 -0.0350436 1.14448 -0.999999 0.000977516 0.000977516 
-0.05 -0.0358377 1.17493 -0.999999 0.000977516 0.000977516 
-0.05 0.0104675 1.2089 -0.999999 0.000977516 0.000977516 
-0.05 -0.0368453 1.14325 -0.999999 0.000977516 0.000977516 
-0.05 -0.0340572 1.15336 -0.999999 0.000977516 0.000977516 
-0.05 -0.0407045 1.18026 -0.999999 0.000977516 0.000977516 
-0.05 -0.0354421 1.14928 -0.999999 0.000977516 0.000977516 
-0.05 -0.0331404 1.21004 -0.999999 0.000977516 0.000977516 
-0.05 -0.0352805 1.1484 -0.999999 0.000977516 0.000977516 
-0.05 -0.00019259 1.21317 -0.999999 0.000977516 0.000977516 
-0.05 0.00625717 1.19585 -0.999999 0.000977516 0.000977516 
-0.05 -0.00449804 1.19445 -0.999999 0.000977516 0.000977516 
-0.05 -0.0230925 1.17285 -0.999999 0.000977516 0.000977516 
-0.05 -0.0198026 1.19355 -0.999999 0.000977516 0.000977516 
-0.05 -0.0419964 1.19231 -0.999999 0.000977516 0.000977516 
-0.05 -0.00301466 1.17569 -0.999999 0.000977516 0.000977516 
-0.05 -0.047066 1.12566 -0.999999 0.000977516 0.000977516 
-0.05 -0.033179 1.14688 -0.999999 0.000977516 0.000977516 
-0.05 -0.0174691 1.19198 -0.999999 0.000977516 0.000977516 
-0.05 -0.0382317 1.18265 -0.999999 0.000977516 0.000977516 
-0.05 0.0299584 1.2074 -0.999999 0.000977516 0.000977516 
-0.05 -0.00325999 1.19674 -0.999999 0.000977516 0.000977516 
-0.05 -0.0436016 1.14281 -0.999999 0.000977516 0.000977516 
-0.05 -0.0482732 1.1893 -0.999999 0.000977516 0.000977516 
-0.05 -0.0297252 1.19786 -0.999999 0.000977516 0.000977516 
-0.05 0.00206881 1.17201 -0.999999 0.000977516 0.000977516 
-0.05 -0.00551617 1.20291 -0.999999 0.000977516 0.000977516 
-0.05 -0.0357311 1.21032 -0.999999 0.000977516 0.000977516 
-0.05 -0.0220392 1.20307 -0.999999 0.000977516 0.000977516 
-0.05 -0.0407385 1.16301 -0.999999 0.000977516 0.000977516 
-0.05 0.0173135 1.1953 -0.999999 0.000977516 0.000977516 
-0.05 -0.0462964 1.15065 -0.999999 0.000977516 0.000977516 
-0.05 0.0109354 1.20827 -0.999999 0.000977516 0.000977516 
-0.05 -0.0144134 1.18482 -0.999999 0.000977516 0.000977516 
-0.05 -0.0443322 1.19278 -0.999999 0.000977516 0.000977516 
-0.05 0.0130009 1.21028 -0.999999 0.000977516 0.000977516 
-0.05 0.0388385 1.21452 -0.999999 0.000977516 0.000977516 
-0.05 0.0193048 1.19359 -0.999999 0.000977516 0.000977516 
-0.05 -0.00819197 1.20694 -0.999999 0.000977516 0.000977516 
-0.05 -0.023653 1.1438 -0.999999 0.000977516 0.000977516 
-0.05 -0.0495192 1.18683 -0.999999 0.000977516 0.000977516 
-0.05 -0.0411541 1.14747 -0.999999 0.000977516 0.000977516 
-0.05 -0.0453048 1.17084 -0.999999 0.000977516 0.000977516 
-0.05 0.00279059 1.20405 -0.999999 0.000977516 0.000977516 
-0.05 -0.0428091 1.17776 -0.999999 0.000977516 0.000977516 
-0.05 0.0110363 1.17709 -0.999999 0.000977516 0.000977516 
-0.05 -0.0349538 1.16275 -0.999999 0.000977516 0.000977516 
-0.05 -0.00945184 1.1879 -0.999999 0.000977516 0.000977516 
-0.05 -0.0105362 1.19841 -0.999999 0.000977516 0.000977516 
-0.05 0.0336694 1.20475 -0.999999 0.000977516 0.000977516 
-0.05 -0.00960242 1.21219 -0.999999 0.000977516 0.000977516 
-0.05 -0.0268706 1.14537 -0.999999 0.000977516 0.000977516 
-0.05 -0.0245576 1.14879 -0.999999 0.000977516 0.000977516 
-0.05 -0.044277 1.12452 -0.999999 0.000977516 0.000977516 
-0.05 0.0095554 1.1788 -0.999999 0.000977516 0.000977516 
-0.05 -0.0185653 1.18475 -0.999999 0.000977516 0.000977516 
-0.05 -0.0239458 1.14872 -0.999999 0.000977516 0.000977516 
-0.05 -0.0234523 1.20976 -0.999999 0.000977516 0.000977516 
-0.05 -0.0437236 1.15954 -0.999999 0.000977516 0.000977516 
-0.05 0.0397108 1.21431 -0.999999 0.000977516 0.000977516 
-0.05 -0.0055343 1.17686 -0.999999 0.000977516 0.000977516 
-0.05 0.00364108 1.21021 -0.999999 0.000977516 0.000977516 
-0.05 -0.00419167 1.18127 -0.999999 0.000977516 0.000977516 
-0.05 -0.011595 1.20344 -0.999999 0.000977516 0.000977516 
-0.05 0.00853218 1.20338 -0.999999 0.000977516 0.000977516 
-0.05 -0.0239281 1.1722 -0.999999 0.000977516 0.000977516 
-0.05 -0.015755 1.202 -0.999999 0.000977516 0.000977516 
-0.05 0.00354873 1.2021 -0.999999 0.000977516 0.000977516 
-0.05 -0.00340819 1.18905 -0.999999 0.000977516 0.000977516 
-0.05 -0.0290351 1.19716 -0.999999 0.000977516 0.000977516 
-0.05 -0.0237986 1.14936 -0.999999 0.000977516 0.000977516 
-0.05 -0.0452886 1.18126 -0.999999 0.000977516 0.000977516 
-0.05 -0.0260883 1.19259 -0.999999 0.000977516 0.000977516 
-0.05 0.0130291 1.19566 -0.999999 0.000977516 0.000977516 
-0.05 0.0267831 1.20416 -0.999999 0.000977516 0.000977516 
-0.05 -0.0436849 1.15561 -0.999999 0.000977516 0.000977516 
-0.05 -0.0480971 1.18024 -0.999999 0.000977516 0.000977516 
-0.05 -0.0328531 1.18574 -0.999999 0.000977516 0.000977516 
-0.05 -0.00896563 1.16023 -0.999999 0.000977516 0.000977516 
-0.05 -0.0300504 1.17763 -0.999999 0.000977516 0.000977516 
-0.05 0.00162748 1.20649 -0.999999 0.000977516 0.000977516 
-0.05 0.0121959 1.21416 -0.999999 0.000977516 0.000977516 
-0.05 0.0237726 1.19918 -0.999999 0.000977516 0.000977516 
-0.05 -0.0322358 1.17121 -0.999999 0.000977516 0.000977516 
-0.05 -0.0142284 1.17009 -0.999999 0.000977516 0.000977516 
-0.05 0.00583409 1.18955 -0.999999 0.000977516 0.000977516 
-0.05 -0.0263441 1.17612 -0.999999 0.000977516 0.000977516 
-0.05 -0.048855 1.20532 -0.999999 0.000977516 0.000977516 
-0.05 0.013271 1.19663 -0.999999 0.000977516 0.000977516 
-0.05 0.0256626 1.20871 -0.999999 0.000977516 0.000977516 
-0.05 -0.042863 1.12371 -0.999999 0.000977516 0.000977516 
-0.05 -0.00290231 1.20457 -0.999999 0.000977516 0.000977516 
-0.05 -0.0403283 1.16207 -0.999999 0.000977516 0.000977516 
-0.05 -0.030037 1.14818 -0.999999 0.000977516 0.000977516 
-0.05 0.0266091 1.20771 -0.999999 0.000977516 0.000977516 
-0.05 0.0270766 1.20564 -0.999999 0.000977516 0.000977516 
-0.05 -0.0285222 1.20744 -0.999999 0.000977516 0.000977516 
-0.05 0.0209188 1.195 -0.999999 0.000977516 0.000977516 
-0.05 -0.0361727 1.20276 -0.999999 0.000977516 0.000977516 
-0.05 -0.0278617 1.17735 -0.999999 0.000977516 0.000977516 
-0.05 -0.0484433 1.12701 -0.999999 0.000977516 0.000977516 
-0.05 -0.0227834 1.16747 -0.999999 0.000977516 0.000977516 
-0.05 -0.0346427 1.20701 -0.999999 0.000977516 0.000977516 
-0.05 -0.0460141 1.21039 -0.999999 0.000977516 0.000977516 
-0.05 0.00915863 1.19329 -0.999999 0.000977516 0.000977516 
-0.05 -0.0336659 1.18974 -0.999999 0.000977516 0.000977516 
-0.05 -0.0106811 1.20128 -0.999999 0.000977516 0.000977516 
-0.05 -0.00104399 1.1977 -0.999999 0.000977516 0.000977516 
-0.05 -0.0239762 1.19839 -0.999999 0.000977516 0.000977516 
-0.05 -0.0237428 1.16267 -0.999999 0.000977516 0.000977516 
-0.05 0.026899 1.20385 -0.999999 0.000977516 0.000977516 
-0.05 -0.0465203 1.12981 -0.999999 0.000977516 0.000977516 
-0.05 0.012298 1.21412 -0.999999 0.000977516 0.000977516 
-0.05 -0.0426134 1.12449 -0.999999 0.000977516 0.000977516 
-0.05 0.00826837 1.17856 -0.999999 0.000977516 0.000977516 
-0.05 -0.0390501 1.18755 -0.999999 0.000977516 0.000977516 
-0.05 -0.0499909 1.14605 -0.999999 0.000977516 0.000977516 
-0.05 -0.0398818 1.20706 -0.999999 0.000977516 0.000977516 
-0.05 -0.0195786 1.15767 -0.999999 0.000977516 0.000977516 
-0.05 -0.0427791 1.17943 -0.999999 0.000977516 0.000977516 
-0.05 -0.0336027 1.16077 -0.999999 0.000977516 0.000977516 
-0.05 0.0288847 1.20762 -0.999999 0.000977516 0.000977516 
-0.05 0.0334696 1.21275 -0.999999 0.000977516 0.000977516 
-0.05 -0.0292875 1.15174 -0.999999 0.000977516 0.000977516 
-0.05 -0.0489515 1.15781 -0.999999 0.000977516 0.000977516 
-0.05 -0.0314133 1.13823 -0.999999 0.000977516 0.000977516 
-0.05 0.00448325 1.19399 -0.999999 0.000977516 0.000977516 
-0.05 0.0202638 1.20352 -0.999999 0.000977516 0.000977516 
-0.05 -0.0120148 1.20748 -0.999999 0.000977516 0.000977516 
-0.05 0.0122499 1.20743 -0.999999 0.000977516 0.000977516 
-0.05 0.00138186 1.17554 -0.999999 0.000977516 0.000977516 
-0.05 -0.0465345 1.12182 -0.999999 0.000977516 0.000977516 
-0.05 0.0283414 1.20726 -0.999999 0.000977516 0.000977516 
-0.05 -0.0333906 1.14545 -0.999999 0.000977516 0.000977516 
-0.05 -0.000445057 1.19349 -0.999999 0.000977516 0.000977516 
-0.05 -0.00386053 1.16377 -0.999999 0.000977516 0.000977516 
-0.05 0.0128324 1.20453 -0.999999 0.000977516 0.000977516 
-0.05 -0.0322576 1.20033 -0.999999 0.000977516 0.000977516 
-0.05 -0.0466972 1.18405 -0.999999 0.000977516 0.000977516 
-0.05 -0.0384005 1.14153 -0.999999 0.000977516 0.000977516 
-0.05 -0.0380346 1.17504 -0.999999 0.000977516 0.000977516 
-0.05 0.0120981 1.21093 -0.999999 0.000977516 0.000977516 
-0.05 -0.00774267 1.18249 -0.999999 0.000977516 0.000977516 
-0.05 -0.041014 1.13297 -0.999999 0.000977516 0.000977516 
-0.05 0.0108233 1.19056 -0.999999 0.000977516 0.000977516 
-0.05 0.0383507 1.20741 -0.999999 0.000977516 0.000977516 
-0.05 -0.0484228 1.13711 -0.999999 0.000977516 0.000977516 
-0.05 0.012607 1.21314 -0.999999 0.000977516 0.000977516 
-0.05 -0.0401164 1.20102 -0.999999 0.000977516 0.000977516 
-0.05 -0.0427777 1.1619 -0.999999 0.000977516 0.000977516 
-0.05 -0.0319724 1.21205 -0.999999 0.000977516 0.000977516 
-0.05 -0.00980366 1.15754 -0.999999 0.000977516 0.000977516 
-0.05 -0.0114433 1.15517 -0.999999 0.000977516 0.000977516 
-0.05 -0.00650948 1.16007 -0.999999 0.000977516 0.000977516 
-0.05 -0.0255953 1.21048 -0.999999 0.000977516 0.000977516 
-0.05 0.0275877 1.1932 -0.999999 0.000977516 0.000977516 
-0.05 -0.0352911 1.1835 -0.999999 0.000977516 0.000977516 
-0.05 -0.0106392 1.17578 -0.999999 0.000977516 0.000977516 
-0.05 -0.0419112 1.17397 -0.999999 0.000977516 0.000977516 
-0.05 -0.0437696 1.18979 -0.999999 0.000977516 0.000977516 
-0.05 -0.0251661 1.18599 -0.999999 0.000977516 0.000977516 
-0.05 -0.0471125 1.19014 -0.999999 0.000977516 0.000977516 
-0.05 0.0258808 1.20396 -0.999999 0.000977516 0.000977516 
-0.05 -0.00416854 1.18205 -0.999999 0.000977516 0.000977516 
-0.05 0.0447146 1.21145 -0.999999 0.000977516 0.000977516 
-0.05 -0.0392027 1.2038 -0.999999 0.000977516 0.000977516 
-0.05 -0.0259846 1.17378 -0.999999 0.000977516 0.000977516 
-0.05 -0.048621 1.20348 -0.999999 0.000977516 0.000977516 
-0.05 -0.00076865 1.17048 -0.999999 0.000977516 0.000977516 
-0.05 -0.0112313 1.19665 -0.999999 0.000977516 0.000977516 
-0.05 -0.0387835 1.19126 -0.999999 0.000977516 0.000977516 
-0.05 -0.0293827 1.15702 -0.999999 0.000977516 0.000977516 
-0.05 0.00688891 1.18412 -0.999999 0.000977516 0.000977516 
-0.05 0.0135766 1.19789 -0.999999 0.000977516 0.000977516 
-0.05 0.0407763 1.20686 -0.999999 0.000977516 0.000977516 
-0.05 -0.0358513 1.18097 -0.999999 0.000977516 0.000977516 
-0.05 -0.00831594 1.18201 -0.999999 0.000977516 0.000977516 
-0.05 -0.0406271 1.18206 -0.999999 0.000977516 0.000977516 
-0.05 -0.00450328 1.17724 -0.999999 0.000977516 0.000977516 
-0.05 -0.0360637 1.18204 -0.999999 0.000977516 0.000977516 
-0.05 -0.0101916 1.16152 -0.999999 0.000977516 0.000977516 
-0.05 -0.0191492 1.17114 -0.999999 0.000977516 0.000977516 
-0.05 -0.00563009 1.182 -0.999999 0.000977516 0.000977516 
-0.05 -0.0399227 1.20302 -0.999999 0.000977516 0.000977516 
-0.05 -0.0324268 1.15578 -0.999999 0.000977516 0.000977516 
-0.05 -0.0270587 1.20679 -0.999999 0.000977516 0.000977516 
-0.05 0.0177709 1.18818 -0.999999 0.000977516 0.000977516 
-0.05 -0.0292172 1.14533 -0.999999 0.000977516 0.000977516 
-0.05 0.00698671 1.17525 -0.999999 0.000977516 0.000977516 
-0.05 -0.0212654 1.17585 -0.999999 0.000977516 0.000977516 
0.05 0.0136765 1.18081 0.999999 0.000977516 -0.000977516 
0.05 -0.0023723 1.16992 0.999999 0.000977516 -0.000977516 
0.05 0.0473345 1.14318 0.999999 0.000977516 -0.000977516 
0.05 0.0462458 1.14593 0.999999 0.000977516 -0.000977516 
0.05 0.0125406 1.18147 0.999999 0.000977516 -0.000977516 
0.05 0.00448728 1.21206 0.999999 0.000977516 -0.000977516 
0.05 0.0417593 1.18585 0.999999 0.000977516 -0.000977516 
0.05 0.0396792 1.15101 0.999999 0.000977516 -0.000977516 
0.05 0.0417125 1.15179 0.999999 0.000977516 -0.000977516 
0.05 0.0348855 1.20607 0.999999 0.000977516 -0.000977516 
0.05 0.00932791 1.1794 0.999999 0.000977516 -0.000977516 
0.05 0.0284938 1.18439 0.999999 0.000977516 -0.000977516 
0.05 0.00218327 1.16915 0.999999 0.000977516 -0.000977516 
0.05 -0.000889309 1.18847 0.999999 0.000977516 -0.000977516 
0.05 -0.0185422 1.20433 0.999999 0.000977516 -0.000977516 
0.05 0.0273537 1.16539 0.999999 0.000977516 -0.000977516 
0.05 0.0260356 1.17763 0.999999 0.000977516 -0.000977516 
0.05 0.0411376 1.1986 0.999999 0.000977516 -0.000977516 
0.05 0.0251488 1.16526 0.999999 0.000977516 -0.000977516 
0.05 -0.0234009 1.20367 0.999999 0.000977516 -0.000977516 
0.05 0.0291374 1.13709 0.999999 0.000977516 -0.000977516 
0.05 0.00483913 1.17567 0.999999 0.000977516 -0.000977516 
0.05 -0.0031792 1.1817 0.999999 0.000977516 -0.000977516 
0.05 0.0215981 1.17793 0.999999 0.000977516 -0.000977516 
0.05 0.0249988 1.15171 0.999999 0.000977516 -0.000977516 
0.05 0.0426264 1.21067 0.999999 0.000977516 -0.000977516 
0.05 0.0387907 1.2004 0.999999 0.000977516 -0.000977516 
0.05 -0.000241898 1.19592 0.999999 0.000977516 -0.000977516 
0.05 0.0212925 1.19484 0.999999 0.000977516 -0.000977516 
0.05 0.0300604 1.13557 0.999999 0.000977516 -0.000977516 
0.05 0.0441237 1.14114 0.999999 0.000977516 -0.000977516 
0.05 0.032752 1.14539 0.999999 0.000977516 -0.000977516 
0.05 0.0392095 1.19735 0.999999 0.000977516 -0.000977516 
0.05 0.00610768 1.19421 0.999999 0.000977516 -0.000977516 
0.05 0.0283973 1.15381 0.999999 0.000977516 -0.000977516 
0.05 0.0277304 1.15813 0.999999 0.000977516 -0.000977516 
0.05 0.0493889 1.17243 0.999999 0.000977516 -0.000977516 
0.05 0.0447357 1.16498 0.999999 0.000977516 -0.000977516 
0.05 -0.0377252 1.20684 0.999999 0.000977516 -0.000977516 
0.05 0.0248846 1.20698 0.999999 0.000977516 -0.000977516 
0.05 0.0250002 1.20236 0.999999 0.000977516 -0.000977516 
0.05 0.00638305 1.20019 0.999999 0.000977516 -0.000977516 
0.05 -0.0408366 1.2113 0.999999 0.000977516 -0.000977516 
0.05 -0.0124768 1.17875 0.999999 0.000977516 -0.000977516 
0.05 -0.00127012 1.1754 0.999999 0.000977516 -0.000977516 
0.05 0.0389478 1.19381 0.999999 0.000977516 -0.000977516 
0.05 0.0108747 1.15602 0.999999 0.000977516 -0.000977516 
0.05 0.0220656 1.15802 0.999999 0.000977516 -0.000977516 
0.05 0.024327 1.16305 0.999999 0.000977516 -0.000977516 
0.05 0.00634068 1.17507 0.999999 0.000977516 -0.000977516 
0.05 0.0206899 1.18007 0.999999 0.000977516 -0.000977516 
0.05 0.0229191 1.18851 0.999999 0.000977516 -0.000977516 
0.05 -0.0147209 1.18492 0.999999 0.000977516 -0.000977516 
0.05 0.00958196 1.16489 0.999999 0.000977516 -0.000977516 
0.05 0.0323049 1.21398 0.999999 0.000977516 -0.000977516 
0.05 0.0182223 1.21032 0.999999 0.000977516 -0.000977516 
0.05 0.032694 1.14837 0.999999 0.000977516 -0.000977516 
0.05 0.0289348 1.20317 0.999999 0.000977516 -0.000977516 
0.05 0.00944027 1.17767 0.999999 0.000977516 -0.000977516 
0.05 0.0324287 1.21397 0.999999 0.000977516 -0.000977516 
0.05 0.00120602 1.20903 0.999999 0.000977516 -0.000977516 
0.05 0.0110368 1.15729 0.999999 0.000977516 -0.000977516 
0.05 0.0042271 1.19995 0.999999 0.000977516 -0.000977516 
0.05 -0.00627579 1.18872 0.999999 0.000977516 -0.000977516 
0.05 -0.0322865 1.20937 0.999999 0.000977516 -0.000977516 
0.05 0.0455922 1.14373 0.999999 0.000977516 -0.000977516 
0.05 0.0101483 1.15905 0.999999 0.000977516 -0.000977516 
0.05 0.0307854 1.15598 0.999999 0.000977516 -0.000977516 
0.05 -0.0153165 1.1978 0.999999 0.000977516 -0.000977516 
0.05 0.0151281 1.17582 0.999999 0.000977516 -0.000977516 
0.05 0.038728 1.19229 0.999999 0.000977516 -0.000977516 
0.05 -0.0177519 1.20893 0.999999 0.000977516 -0.000977516 
0.05 -0.0112528 1.20045 0.999999 0.000977516 -0.000977516 
0.05 -0.0165116 1.21222 0.999999 0.000977516 -0.000977516 
0.05 0.0300431 1.15867 0.999999 0.000977516 -0.000977516 
0.05 0.0281808 1.20758 0.999999 0.000977516 -0.000977516 
0.05 0.046895 1.15513 0.999999 0.000977516 -0.000977516 
0.05 0.0262819 1.14365 0.999999 0.000977516 -0.000977516 
0.05 -0.0120093 1.18176 0.999999 0.000977516 -0.000977516 
0.05 0.00143873 1.21048 0.999999 0.000977516 -0.000977516 
0.05 0.0152208 1.18256 0.999999 0.000977516 -0.000977516 
0.05 0.0473052 1.21289 0.999999 0.000977516 -0.000977516 
0.05 -0.0286468 1.19587 0.999999 0.000977516 -0.000977516 
0.05 0.0377784 1.19329 0.999999 0.000977516 -0.000977516 
0.05 -0.0129822 1.19359 0.999999 0.000977516 -0.000977516 
0.05 0.0393054 1.17722 0.999999 0.000977516 -0.000977516 
0.05 0.0454868 1.18347 0.999999 0.000977516 -0.000977516 
0.05 0.0407146 1.1843 0.999999 0.000977516 -0.000977516 
0.05 -0.0258341 1.2092 0.999999 0.000977516 -0.000977516 
0.05 -0.0140595 1.19188 0.999999 0.000977516 -0.000977516 
0.05 0.0255419 1.16237 0.999999 0.000977516 -0.000977516 
0.05 0.042887 1.13381 0.999999 0.000977516 -0.000977516 
0.05 -0.00146405 1.1697 0.999999 0.000977516 -0.000977516 
0.05 0.0252649 1.17577 0.999999 0.000977516 -0.000977516 
0.05 -0.0306285 1.20206 0.999999 0.000977516 -0.000977516 
0.05 0.0378131 1.20955 0.999999 0.000977516 -0.000977516 
0.05 0.0113102 1.18337 0.999999 0.000977516 -0.000977516 
0.05 0.0412624 1.17739 0.999999 0.000977516 -0.000977516 
0.05 0.0439246 1.17005 0.999999 0.000977516 -0.000977516 
0.05 -0.0287303 1.21272 0.999999 0.000977516 -0.000977516 
0.05 0.0390665 1.16891 0.999999 0.000977516 -0.000977516 
0.05 0.0243346 1.20524 0.999999 0.000977516 -0.000977516 
0.05 0.00644589 1.17469 0.999999 0.000977516 -0.000977516 
0.05 0.0340589 1.15306 0.999999 0.000977516 -0.000977516 
0.05 0.00893301 1.18224 0.999999 0.000977516 -0.000977516 
0.05 0.0140694 1.18172 0.999999 0.000977516 -0.000977516 
0.05 0.0298028 1.16194 0.999999 0.000977516 -0.000977516 
0.05 0.00396519 1.18243 0.999999 0.000977516 -0.000977516 
0.05 0.029757 1.17514 0.999999 0.000977516 -0.000977516 
0.05 0.022519 1.20331 0.999999 0.000977516 -0.000977516 
0.05 0.048034 1.1383 0.999999 0.000977516 -0.000977516 
0.05 0.043203 1.1288 0.999999 0.000977516 -0.000977516 
0.05 0.00612712 1.21164 0.999999 0.000977516 -0.000977516 
0.05 0.0162299 1.19327 0.999999 0.000977516 -0.000977516 
0.05 0.0277418 1.17486 0.999999 0.000977516 -0.000977516 
0.05 -0.010232 1.20178 0.999999 0.000977516 -0.000977516 
0.05 0.00333922 1.16662 0.999999 0.000977516 -0.000977516 
0.05 0.000980577 1.18233 0.999999 0.000977516 -0.000977516 
0.05 -0.00235474 1.18497 0.999999 0.000977516 -0.000977516 
0.05 0.0445061 1.16833 0.999999 0.000977516 -0.000977516 
0.05 0.0488047 1.17959 0.999999 0.000977516 -0.000977516 
0.05 0.0256806 1.14591 0.999999 0.000977516 -0.000977516 
0.05 -0.00304026 1.19614 0.999999 0.000977516 -0.000977516 
0.05 0.00131485 1.17898 0.999999 0.000977516 -0.000977516 
0.05 0.0383623 1.21462 0.999999 0.000977516 -0.000977516 
0.05 0.0381297 1.17283 0.999999 0.000977516 -0.000977516 
0.05 0.0371472 1.19975 0.999999 0.000977516 -0.000977516 
0.05 0.0435035 1.20879 0.999999 0.000977516 -0.000977516 
0.05 -0.00120997 1.1869 0.999999 0.000977516 -0.000977516 
0.05 -0.019369 1.18643 0.999999 0.000977516 -0.000977516 
0.05 0.0495781 1.16065 0.999999 0.000977516 -0.000977516 
0.05 0.0311343 1.18449 0.999999 0.000977516 -0.000977516 
0.05 0.0312923 1.2098 0.999999 0.000977516 -0.000977516 
0.05 0.025549 1.20903 0.999999 0.000977516 -0.000977516 
0.05 0.04405 1.12246 0.999999 0.000977516 -0.000977516 
0.05 0.016353 1.18801 0.999999 0.000977516 -0.000977516 
0.05 -0.0169509 1.20238 0.999999 0.000977516 -0.000977516 
0.05 0.000552145 1.17108 0.999999 0.000977516 -0.000977516 
0.05 -0.033117 1.21034 0.999999 0.000977516 -0.000977516 
0.05 0.0392399 1.17091 0.999999 0.000977516 -0.000977516 
0.05 0.0288678 1.16284 0.999999 0.000977516 -0.000977516 
0.05 0.0410404 1.12839 0.999999 0.000977516 -0.000977516 
0.05 0.0129727 1.17318 0.999999 0.000977516 -0.000977516 
0.05 0.0496692 1.19336 0.999999 0.000977516 -0.000977516 
0.05 -0.0369187 1.20598 0.999999 0.000977516 -0.000977516 
0.05 0.00795368 1.19566 0.999999 0.000977516 -0.000977516 
0.05 0.0295477 1.20075 0.999999 0.000977516 -0.000977516 
0.05 0.0455274 1.15391 0.999999 0.000977516 -0.000977516 
0.05 0.0118033 1.18808 0.999999 0.000977516 -0.000977516 
0.05 0.0269757 1.19205 0.999999 0.000977516 -0.000977516 
0.05 0.0428353 1.20205 0.999999 0.000977516 -0.000977516 
0.05 0.0344959 1.14586 0.999999 0.000977516 -0.000977516 
0.05 -0.00990868 1.20222 0.999999 0.000977516 -0.000977516 
0.05 0.0360988 1.16895 0.999999 0.000977516 -0.000977516 
0.05 0.0295554 1.15232 0.999999 0.000977516 -0.000977516 
0.05 0.0388283 1.14895 0.999999 0.000977516 -0.000977516 
0.05 0.0114923 1.16166 0.999999 0.000977516 -0.000977516 
0.05 -0.0264125 1.19573 0.999999 0.000977516 -0.000977516 
0.05 0.0145064 1.16387 0.999999 0.000977516 -0.000977516 
0.05 0.0289101 1.202 0.999999 0.000977516 -0.000977516 
0.05 0.000102529 1.18882 0.999999 0.000977516 -0.000977516 
0.05 0.0337944 1.21162 0.999999 0.000977516 -0.000977516 
0.05 0.0333549 1.19119 0.999999 0.000977516 -0.000977516 
0.05 0.0276131 1.14369 0.999999 0.000977516 -0.000977516 
0.05 0.00972152 1.15865 0.999999 0.000977516 -0.000977516 
0.05 0.0357012 1.18199 0.999999 0.000977516 -0.000977516 
0.05 -0.0243218 1.20339 0.999999 0.000977516 -0.000977516 
0.05 0.0473159 1.17833 0.999999 0.000977516 -0.000977516 
0.05 0.0124546 1.19751 0.999999 0.000977516 -0.000977516 
0.05 -0.0392778 1.21335 0.999999 0.000977516 -0.000977516 
0.05 0.0121929 1.18244 0.999999 0.000977516 -0.000977516 
0.05 0.0246391 1.20514 0.999999 0.000977516 -0.000977516 
0.05 0.0152177 1.18529 0.999999 0.000977516 -0.000977516 
0.05 0.0425145 1.18116 0.999999 0.000977516 -0.000977516 
0.05 0.0473627 1.19246 0.999999 0.000977516 -0.000977516 
0.05 0.00969222 1.168 0.999999 0.000977516 -0.000977516 
0.05 0.0230253 1.1897 0.999999 0.000977516 -0.000977516 
0.05 0.0276391 1.191 0.999999 0.000977516 -0.000977516 
0.05 0.0271237 1.15175 0.999999 0.000977516 -0.000977516 
0.05 0.0020209 1.2082 0.999999 0.000977516 -0.000977516 
0.05 -0.0117759 1.20167 0.999999 0.000977516 -0.000977516 
0.05 0.0206505 1.20334 0.999999 0.000977516 -0.000977516 
0.05 0.0129811 1.17209 0.999999 0.000977516 -0.000977516 
0.05 0.0272348 1.20883 0.999999 0.000977516 -0.000977516 
0.05 0.032495 1.15801 0.999999 0.000977516 -0.000977516 
0.05 0.0477662 1.15655 0.999999 0.000977516 -0.000977516 
0.05 0.0415334 1.18437 0.999999 0.000977516 -0.000977516 
0.05 -0.00420123 1.17252 0.999999 0.000977516 -0.000977516 
0.05 -0.0215728 1.21425 0.999999 0.000977516 -0.000977516 
0.05 0.0467415 1.19141 0.999999 0.000977516 -0.000977516 
0.05 0.0459954 1.14345 0.999999 0.000977516 -0.000977516 
0.05 0.034648 1.18376 0.999999 0.000977516 -0.000977516 
0.05 0.0202539 1.1893 0.999999 0.000977516 -0.000977516 
0.05 -0.0155172 1.18229 0.999999 0.000977516 -0.000977516 
0.05 0.00148864 1.20437 0.999999 0.000977516 -0.000977516 
0.05 0.0267061 1.14021 0.999999 0.000977516 -0.000977516 
0.05 0.0217593 1.17654 0.999999 0.000977516 -0.000977516 
0.05 0.0314839 1.19886 0.999999 0.000977516 -0.000977516 
0.05 0.0181444 1.18437 0.999999 0.000977516 -0.000977516 
0.05 -0.0052664 1.18395 0.999999 0.000977516 -0.000977516 
0.05 0.0021447 1.17075 0.999999 0.000977516 -0.000977516 
0.05 0.00928866 1.17422 0.999999 0.000977516 -0.000977516 
0.05 0.0455924 1.14782 0.999999 0.000977516 -0.000977516 
0.05 0.0485534 1.15431 0.999999 0.000977516 -0.000977516 
0.05 0.00770159 1.20299 0.999999 0.000977516 -0.000977516 
0.05 0.04378 1.17335 0.999999 0.000977516 -0.000977516 
0.05 0.0116775 1.21351 0.999999 0.000977516 -0.000977516 
0.05 0.0372714 1.19667 0.999999 0.000977516 -0.000977516 
0.05 0.0418029 1.16725 0.999999 0.000977516 -0.000977516 
0.05 0.028993 1.17042 0.999999 0.000977516 -0.000977516 
0.05 0.00891845 1.19313 0.999999 0.000977516 -0.000977516 
0.05 0.0256045 1.1579 0.999999 0.000977516 -0.000977516 
0.05 -0.0382035 1.2129 0.999999 0.000977516 -0.000977516 
0.05 0.00892585 1.17334 0.999999 0.000977516 -0.000977516 
0.05 0.0117066 1.17181 0.999999 0.000977516 -0.000977516 
0.05 0.0196928 1.2147 0.999999 0.000977516 -0.000977516 
0.05 0.000668168 1.18525 0.999999 0.000977516 -0.000977516 
0.05 0.00340937 1.17656 0.999999 0.000977516 -0.000977516 
0.05 0.0105562 1.17166 0.999999 0.000977516 -0.000977516 
0.05 0.0337859 1.16314 0.999999 0.000977516 -0.000977516 
0.05 0.000299513 1.1773 0.999999 0.000977516 -0.000977516 
0.05 -0.0318479 1.21232 0.999999 0.000977516 -0.000977516 
0.05 0.00274456 1.18968 0.999999 0.000977516 -0.000977516 
0.05 0.0172698 1.20599 0.999999 0.000977516 -0.000977516 
0.05 -0.0268795 1.21432 0.999999 0.000977516 -0.000977516 
0.05 -0.00618842 1.1895 0.999999 0.000977516 -0.000977516 
0.05 0.0437335 1.12463 0.999999 0.000977516 -0.000977516 
0.05 0.0283823 1.19849 0.999999 0.000977516 -0.000977516 
0.05 0.00326006 1.18202 0.999999 0.000977516 -0.000977516 
0.05 -0.00554274 1.21115 0.999999 0.000977516 -0.000977516 
0.05 0.0118988 1.17275 0.999999 0.000977516 -0.000977516 
0.05 -0.0250217 1.19011 0.999999 0.000977516 -0.000977516 
0.05 0.0118984 1.20424 0.999999 0.000977516 -0.000977516 
0.05 0.0108898 1.16568 0.999999 0.000977516 -0.000977516 
0.05 0.0328973 1.21355 0.999999 0.000977516 -0.000977516 
0.05 0.0302815 1.15807 0.999999 0.000977516 -0.000977516 
0.05 -0.0154605 1.18654 0.999999 0.000977516 -0.000977516 
0.05 0.00103769 1.19729 0.999999 0.000977516 -0.000977516 
0.05 0.0397687 1.18988 0.999999 0.000977516 -0.000977516 
0.05 0.0409867 1.13177 0.999999 0.000977516 -0.000977516 
0.05 -0.0254912 1.19695 0.999999 0.000977516 -0.000977516 
0.05 -0.0114202 1.20437 0.999999 0.000977516 -0.000977516 
0.05 0.0226556 1.17654 0.999999 0.000977516 -0.000977516 
0.05 0.0359538 1.17227 0.999999 0.000977516 -0.000977516 
0.05 0.037628 1.19517 0.999999 0.000977516 -0.000977516 
0.05 0.0298893 1.17362 0.999999 0.000977516 -0.000977516 
0.05 0.0358598 1.19692 0.999999 0.000977516 -0.000977516 
0.05 0.00736064 1.17194 0.999999 0.000977516 -0.000977516 
0.05 -0.0326649 1.20853 0.999999 0.000977516 -0.000977516 
0.05 0.0170796 1.15859 0.999999 0.000977516 -0.000977516 
0.05 0.00824724 1.20014 0.999999 0.000977516 -0.000977516 
0.05 0.0369955 1.14851 0.999999 0.000977516 -0.000977516 
0.05 -0.00523032 1.18942 0.999999 0.000977516 -0.000977516 
0.05 0.0366066 1.21411 0.999999 0.000977516 -0.000977516 
0.05 0.0197328 1.20571 0.999999 0.000977516 -0.000977516 
0.05 0.0305716 1.14051 0.999999 0.000977516 -0.000977516 
0.05 0.00499894 1.21328 0.999999 0.000977516 -0.000977516 
0.05 0.0185424 1.1929 0.999999 0.000977516 -0.000977516 
0.05 0.0235347 1.21415 0.999999 0.000977516 -0.000977516 
0.05 0.0394962 1.13227 0.999999 0.000977516 -0.000977516 
0.05 0.01315 1.19684 0.999999 0.000977516 -0.000977516 
0.05 0.0102257 1.2102 0.999999 0.000977516 -0.000977516 
0.05 0.0434406 1.1285 0.999999 0.000977516 -0.000977516 
0.05 -0.0214709 1.21351 0.999999 0.000977516 -0.000977516 
0.05 -0.0399719 1.21384 0.999999 0.000977516 -0.000977516 
0.05 -0.0174012 1.19296 0.999999 0.000977516 -0.000977516 
0.05 0.0149314 1.2088 0.999999 0.000977516 -0.000977516 
0.05 0.0233907 1.20559 0.999999 0.000977516 -0.000977516 
0.05 0.0377133 1.13255 0.999999 0.000977516 -0.000977516 
