ply
format ascii 1.0
comment Created by CloudCompare v2.11.3 (Anoia)
comment Created 7/2/25 9:02 PM
obj_info Generated by CloudCompare!
element vertex 1003
property float x
property float y
property float z
end_header
0.00349401 0.000902837 -0.1 
0.0014972 0.00075615 -0.1 
0.00525852 0.00379361 -0.1 
0.00348946 0.00412065 -0.1 
0.00260273 0.00806242 -0.1 
0.000920746 0.00780639 -0.1 
-0.000573579 0.00829532 -0.1 
-0.00325999 0.00761205 -0.1 
-0.0034383 0.00530241 -0.1 
-0.00112286 0.00100475 -0.1 
-0.0074288 0.00269731 -0.1 
-0.00780854 0.000130306 -0.1 
-0.00697221 -0.00180407 -0.1 
-0.00657769 -0.00268861 -0.1 
-0.00607612 -0.00585273 -0.1 
-0.00150625 -0.00212708 -0.1 
-0.00239416 -0.00838817 -0.1 
-0.00014302 -0.000583502 -0.1 
0.000997586 -0.00722726 -0.1 
0.00361081 -0.00671291 -0.1 
0.00296889 -0.00400558 -0.1 
0.00746693 -0.00646147 -0.1 
0.00787477 -0.00235318 -0.1 
0.00180544 -0.000259944 -0.1 
0.00934017 0.00209477 0.1 
0.00794465 0.00292907 0.1 
0.00277548 0.00226663 0.1 
0.00408341 0.00524385 0.1 
0.000576434 0.00194904 0.1 
0.000854456 0.00808722 0.1 
-0.00020197 0.00910638 0.1 
-0.00363885 0.00733126 0.1 
-0.00634977 0.0068981 0.1 
-0.00191021 0.0015803 0.1 
-0.00784822 0.00226393 0.1 
-0.00693699 0.00179557 0.1 
-0.007635 -0.00138348 0.1 
-0.0070101 -0.00358285 0.1 
-0.00701302 -0.00555451 0.1 
-0.00410488 -0.00701153 0.1 
-0.00183776 -0.004769 0.1 
-0.00121419 -0.00602817 0.1 
0.000343858 -0.00144966 0.1 
0.00261985 -0.00801049 0.1 
0.00588154 -0.00757414 0.1 
0.00441299 -0.00289163 0.1 
0.00784352 -0.00300082 0.1 
0.00265243 -8.7911e-05 0.1 
0.00991865 0.000617951 0.0141963 
0.00992408 0.000576628 -0.0942914 
0.00988375 0.000882988 -0.00658724 
0.00975858 0.00183379 -0.0922631 
0.00989464 0.000800316 -0.0576765 
0.00983312 0.00126761 -0.0278369 
0.00996413 0.000272454 0.00929581 
0.00981785 0.0013836 -0.0996144 
0.00985207 0.00112363 -0.0233315 
0.0098766 0.000937322 -0.0436579 
0.00990257 0.000740065 0.0246925 
0.00987731 0.000931935 -0.0831575 
0.0099504 0.000376709 -7.52509e-07 
0.00983147 0.00128008 -0.00314716 
0.00997417 0.000196214 0.0822797 
0.00993459 0.000496817 -0.0212507 
0.00999182 6.2149e-05 -0.0105256 
0.00998273 0.000131179 -0.0955145 
0.00991847 0.000619267 0.0401234 
0.00979928 0.00152462 -0.0558305 
0.00968921 0.0023607 -0.0397849 
0.00981206 0.00142753 0.0443358 
0.00976423 0.00179087 0.0650578 
0.0098703 0.000985132 0.0597242 
0.00974774 0.00191613 0.0149552 
0.00971956 0.00213019 -0.0367791 
0.00973324 0.00202627 0.0512033 
0.00966082 0.00257634 0.060568 
0.00973224 0.00203384 0.0473139 
0.00977668 0.00169628 0.0801629 
0.00978093 0.001664 0.00847027 
0.00966726 0.00252742 0.0452241 
0.00979981 0.00152055 -0.00128542 
0.0097333 0.00202578 -0.0420519 
0.00969186 0.00234058 0.0980472 
0.00983314 0.00126742 0.00492691 
0.0097034 0.00225292 -0.00761701 
0.00971294 0.00218042 -0.00954785 
0.00979821 0.00153271 0.0976004 
0.00966006 0.0025821 0.0538648 
0.00963709 0.00264172 0.0824233 
0.00942916 0.00314369 0.0420166 
0.00908102 0.00398418 -0.0408812 
0.00886366 0.00450894 -0.0609183 
0.0095466 0.00286017 -0.0576352 
0.00872542 0.00484268 -0.0975395 
0.0091145 0.00390334 -0.0656964 
0.00958356 0.00277095 -0.045195 
0.00904687 0.00406664 -0.0291886 
0.00954098 0.00287373 -0.00622427 
0.00961623 0.00269207 -0.0977115 
0.00916348 0.0037851 -0.0239671 
0.00905636 0.00404372 -0.0757862 
0.00963021 0.00265833 -0.0806309 
0.00963459 0.00264774 0.0164765 
0.00954888 0.00285466 0.0303662 
0.0095877 0.00276095 -0.0238338 
0.00943605 0.00312705 -0.0728161 
0.0096485 0.00261417 0.0210868 
0.00941826 0.00317002 -0.0934106 
0.00929659 0.00346374 0.0701431 
0.00869529 0.00491542 0.0772634 
0.00883609 0.00457549 0.0562573 
0.00938889 0.00324092 0.0635188 
0.00908498 0.00397462 0.00947085 
0.00868984 0.00492858 0.00443988 
0.00906054 0.00403362 0.0996669 
0.00936864 0.00328981 0.0679151 
0.00885185 0.00453745 0.0322874 
0.00925986 0.00355242 0.0825504 
0.00933298 0.00337589 0.0711212 
0.00882249 0.00460833 -0.0193974 
0.00872544 0.00484263 -0.0239312 
0.00922557 0.00363521 0.0428534 
0.00912381 0.00388087 0.0190749 
0.00950906 0.0029508 0.0815347 
0.00873213 0.00482647 -0.0444022 
0.00891043 0.00439602 0.0359539 
0.00953076 0.00289842 0.0786077 
0.0086673 0.00498299 -0.0147153 
0.00773439 0.00620661 -0.0562456 
0.00787161 0.00602779 -0.0594231 
0.00852548 0.00517564 -0.0892676 
0.0078259 0.00608735 -0.043138 
0.00763677 0.00633382 -0.0788492 
0.00784662 0.00606035 -0.0173225 
0.00795476 0.00591941 -0.0666388 
0.00850536 0.00520186 -0.0878954 
0.00844523 0.00528022 -0.0393963 
0.00852205 0.00518011 -0.0321555 
0.00745432 0.0065716 -0.0732776 
0.00732868 0.00673534 -0.0804341 
0.00791927 0.00596567 -0.0632314 
0.00777532 0.00615326 -0.0334657 
0.00816026 0.00565161 -0.0749756 
0.0075842 0.00640234 -0.0738089 
0.00791621 0.00596965 -0.0279898 
0.00766283 0.00629987 -0.0903275 
0.00835492 0.00539792 0.0315658 
0.00824004 0.00554763 -0.0895083 
0.00736333 0.00669018 0.0536363 
0.00805256 0.00579197 0.0454293 
0.00744193 0.00658775 0.0695119 
0.0078045 0.00611524 0.0133628 
0.00762227 0.00635272 0.0723237 
0.00740094 0.00664117 -0.0573313 
0.0077243 0.00621976 0.0177159 
0.0079994 0.00586125 0.0758348 
0.00759934 0.00638261 0.0594721 
0.00766232 0.00630053 0.0130144 
0.00767951 0.00627813 0.0919567 
0.00731396 0.00675453 -0.0220619 
0.00821716 0.00557745 0.0594044 
0.00789481 0.00599754 0.0999579 
0.007168 0.00694474 0.0428631 
0.00776718 0.00616387 0.062626 
0.00770136 0.00624966 -0.0118441 
0.00784754 0.00605914 0.00447857 
0.00739748 0.00664567 0.0662141 
0.00728086 0.00679766 -0.00554683 
0.0063827 0.00759927 -0.0160987 
0.00575753 0.00807898 -0.0793279 
0.0060453 0.00785817 -0.0671798 
0.0066739 0.00737583 -0.00406861 
0.00623308 0.00771408 -0.0821497 
0.00560332 0.00819731 -0.0580735 
0.00649791 0.00751086 0.0406587 
0.0067752 0.00729809 0.0379966 
0.0068869 0.00721238 0.0599108 
0.00694166 0.00717037 0.0272001 
0.00534782 0.00839336 -0.0830423 
0.00661612 0.00742016 -0.0974448 
0.0065867 0.00744274 -0.0292408 
0.00585901 0.00800112 -0.0356944 
0.00602483 0.00787387 -0.0935782 
0.00695067 0.00716345 -0.0660121 
0.00570558 0.00811885 -0.088371 
0.00620087 0.00773879 -0.0924749 
0.00703812 0.00709635 -0.0724156 
0.00673133 0.00733176 0.00563489 
0.00671063 0.00734764 0.0936767 
0.00516224 0.00853576 0.023707 
0.00525882 0.00846166 -0.0204056 
0.00500563 0.00865593 0.00873414 
0.00515583 0.00854068 0.0608593 
0.00566618 0.00814907 -0.0249074 
0.00589516 0.00797337 0.0619114 
0.00591299 0.00795969 0.0258874 
0.00505899 0.00861499 -0.0582251 
0.00642586 0.00756615 0.0417411 
0.00542482 0.00833428 0.0340478 
0.0053872 0.00836314 0.0992976 
0.00616904 0.00776322 0.0279857 
0.00569344 0.00812816 -0.0109148 
0.00588343 0.00798237 0.081384 
0.00523253 0.00848183 -0.03758 
0.00625249 0.00769918 0.0834383 
0.0051304 0.0085602 0.0761448 
0.00508219 0.00859719 0.052794 
0.00543665 0.0083252 0.0426789 
0.00337527 0.00933324 -0.0560633 
0.00467349 0.0087955 0.039958 
0.00499935 0.00866052 0.095352 
0.00377788 0.00916647 -0.0905881 
0.00490707 0.00869875 -0.0981012 
0.00405686 0.00905092 -0.00315433 
0.0045846 0.00883232 0.0188341 
0.00397743 0.00908381 -0.0899649 
0.00389164 0.00911935 -0.0881969 
0.00459367 0.00882856 -0.0982806 
0.00310516 0.00944512 -0.0636325 
0.00412035 0.00902462 -0.0340974 
0.00358288 0.00924725 -0.0715062 
0.00485603 0.00871989 0.0145337 
0.00414768 0.0090133 -0.0706806 
0.00414261 0.0090154 -0.0591224 
0.00427854 0.00895909 -0.0443386 
0.00473594 0.00876963 0.0535275 
0.00395859 0.00909162 -0.0521614 
0.00442849 0.00889698 -0.0526955 
0.00333029 0.00935187 0.0485306 
0.00355701 0.00925796 0.0172262 
0.00484464 0.00872461 0.0965698 
0.00311387 0.00944151 -0.0437802 
0.00270727 0.00960993 0.0952962 
0.00274042 0.0095962 -0.00553332 
0.0042228 0.00898218 0.0651208 
0.00320449 0.00940398 0.0308334 
0.00260442 0.00965254 -0.000932053 
0.00296971 0.00950123 0.0222294 
0.00343366 0.00930905 0.0192567 
0.00389426 0.00911827 0.0371321 
0.00292601 0.00951933 -0.0648935 
0.00400426 0.0090727 0.0648832 
0.00265794 0.00963037 -0.0876991 
0.00418636 0.00899728 0.082945 
0.00348384 0.00928827 0.0317388 
0.00283689 0.00955624 0.0227525 
0.00288369 0.00953686 0.0998709 
0.0043172 0.00894308 0.0678629 
0.00136438 0.00982038 -0.00729126 
0.00232456 0.00969397 -0.0107234 
0.000708189 0.00990677 -0.045605 
0.00208508 0.00972549 0.0177068 
0.00211115 0.00972206 -0.0398528 
0.0011803 0.00984461 -0.0569608 
0.00169023 0.00977748 -0.0984468 
0.00223325 0.00970599 -0.00355897 
0.00127275 0.00983244 -0.0848937 
0.00114477 0.00984929 -0.0301219 
0.000950213 0.0098749 -0.0449728 
0.00158683 0.00979109 -0.0487871 
0.00174091 0.0097708 0.0147922 
0.00194425 0.00974404 0.024019 
0.00257032 0.00966161 -0.0757915 
0.00205995 0.0097288 0.00387128 
0.00253466 0.00966631 -0.062531 
0.00134763 0.00982258 -0.0844478 
0.000762347 0.00989963 -0.0863332 
0.00160781 0.00978833 0.00373952 
0.00017136 0.00997744 0.0623218 
0.00043839 0.00994228 -0.0557598 
0.00109466 0.00985589 0.0317931 
0.000869792 0.00988549 0.0563092 
3.48756e-05 0.00999541 -0.00442667 
0.00222361 0.00970726 0.0936402 
0.000237379 0.00996875 0.0265682 
0.000131218 0.00998272 0.0294381 
0.00180456 0.00976242 0.0830921 
0.000304823 0.00995987 -0.0352581 
3.42783e-05 0.00999549 -0.0204081 
0.00140782 0.00981466 0.0626085 
0.00103363 0.00986392 0.0961896 
8.46246e-06 0.00999888 0.0973251 
0.000324652 0.00995726 -0.0330295 
4.99748e-05 0.00999342 -0.0676659 
0.000559177 0.00992638 0.0626724 
0.000158999 0.00997907 -0.0236605 
0.000787999 0.00989626 0.0674229 
0.000252535 0.00996675 -0.0794533 
-0.000774889 0.00989798 0.0377259 
-0.000209698 0.00997239 -0.0488741 
-0.000302386 0.00996019 0.0610418 
-4.97037e-05 0.00999346 0.0609347 
-0.00187939 0.00975257 -0.0470259 
-0.000516362 0.00993202 0.0309468 
-0.000896979 0.00988191 0.0147522 
-0.00196768 0.00974095 -0.0580592 
-0.0021882 0.00971192 -0.0691771 
-0.0015044 0.00980194 -0.0257565 
-0.000364523 0.00995201 -0.0798923 
-0.000559743 0.00992631 -0.0948228 
-0.00032164 0.00995766 -0.0557214 
-0.0015529 0.00979556 -0.078234 
-0.00147644 0.00980562 -0.0271201 
-0.000178539 0.0099765 0.060527 
-0.000486343 0.00993597 0.0517019 
-0.00160595 0.00978857 -0.0372578 
-0.00246779 0.00967511 -0.0991716 
-0.00162659 0.00978586 -0.0658285 
-0.00233306 0.00969285 -0.058227 
-0.00215248 0.00971662 -0.0139241 
-0.0018248 0.00975976 0.0118842 
-0.00108556 0.00985708 0.0997422 
-0.000503055 0.00993377 0.0824968 
-0.00171721 0.00977392 0.0501186 
-0.00198526 0.00973864 0.0944541 
-0.00254187 0.00966536 -0.0487567 
-0.00250487 0.00967023 0.010841 
-0.00254443 0.00966502 -0.0120207 
-0.00125578 0.00983467 0.0102925 
-0.00106606 0.00985965 0.0399814 
-0.00185971 0.00975516 -0.0313066 
-0.00235145 0.00969043 0.0843905 
-0.00113436 0.00985066 0.0626545 
-0.00176624 0.00976747 0.0908374 
-0.00113547 0.00985051 0.0400554 
-0.00256289 0.00966259 0.0662559 
-0.00247568 0.00967407 0.00458245 
-0.00422011 0.00898329 -0.0769778 
-0.00327947 0.00937292 -0.0935857 
-0.00392393 0.00910598 -0.0845246 
-0.00383858 0.00914133 -0.0878753 
-0.00361785 0.00923276 -0.0352548 
-0.00361661 0.00923327 0.00581242 
-0.00273574 0.00959814 0.0443733 
-0.00342651 0.00931202 -0.0290388 
-0.00294178 0.0095128 0.0558459 
-0.0042273 0.00898032 -0.0947405 
-0.00281844 0.00956389 -0.00562253 
-0.00399715 0.00907565 -0.0323852 
-0.00457986 0.00883428 -0.0808811 
-0.00416343 0.00900677 -0.0956995 
-0.00352775 0.00927008 -0.0215803 
-0.00279506 0.00957357 -0.0469474 
-0.00420931 0.00898777 -0.0994886 
-0.00368502 0.00920494 -0.0241918 
-0.00358633 0.00924581 -0.0807993 
-0.00297151 0.00950048 -0.0945637 
-0.00356598 0.00925424 0.0731465 
-0.00424053 0.00897484 -0.0188266 
-0.00459503 0.008828 0.0829838 
-0.00381881 0.00914952 0.0754243 
-0.00424855 0.00897151 0.0396554 
-0.00460064 0.00882567 0.0607345 
-0.00454781 0.00884756 -0.0352877 
-0.00444483 0.00889021 -0.00336007 
-0.00371341 0.00919318 0.0550673 
-0.0044465 0.00888952 0.0881329 
-0.0042203 0.00898322 0.0328475 
-0.00437138 0.00892064 -0.0278441 
-0.00344497 0.00930437 0.0494255 
-0.00408423 0.00903958 0.0868749 
-0.00479103 0.00874681 0.00462879 
-0.00443568 0.008894 -0.0038646 
-0.00326171 0.00938028 0.0947431 
-0.00380603 0.00915481 0.0168261 
-0.00300736 0.00948563 0.0952709 
-0.00418915 0.00899612 -0.0018564 
-0.00512912 0.00856118 0.0563511 
-0.00541531 0.00834158 -0.0659876 
-0.00585475 0.00800438 -0.0794615 
-0.00566311 0.00815143 0.0300473 
-0.00541798 0.00833953 -0.0591948 
-0.0055274 0.00825556 -0.0399356 
-0.00525115 0.00846754 -0.0830855 
-0.00569701 0.00812542 -0.0216353 
-0.00586186 0.00799893 -0.0215048 
-0.00535742 0.008386 0.0276052 
-0.00504016 0.00862944 -0.0869332 
-0.00574349 0.00808975 -0.0934291 
-0.00553003 0.00825355 -0.00747184 
-0.00635897 0.00761748 -0.0400244 
-0.00536542 0.00837986 -0.0274712 
-0.00604236 0.00786042 -0.0222128 
-0.00554309 0.00824353 0.0264213 
-0.00577706 0.008064 -0.0885237 
-0.00647524 0.00752826 -0.0945439 
-0.00525878 0.00846168 -0.0170591 
-0.00624202 0.00770722 0.0514915 
-0.00600017 0.00789279 0.0760664 
-0.00696371 0.00715344 -0.0545542 
-0.00700955 0.00711827 -0.00961781 
-0.00666131 0.00738549 0.0499148 
-0.00687221 0.00722366 -0.0421432 
-0.00673647 0.00732781 0.047499 
-0.00679514 0.00728279 -0.0627629 
-0.00572327 0.00810527 0.0584972 
-0.00663822 0.00740321 0.054583 
-0.00563579 0.00817239 0.0785491 
-0.00614762 0.00777966 0.079344 
-0.00602555 0.00787332 0.0577118 
-0.00584122 0.00801476 0.023496 
-0.0068649 0.00722926 0.0781889 
-0.00693152 0.00717815 0.0056727 
-0.00641732 0.00757271 0.0102953 
-0.00646399 0.00753689 -0.0150169 
-0.00648192 0.00752314 0.0829896 
-0.00717598 0.00693435 0.0181686 
-0.00746964 0.00655164 -0.0409676 
-0.00834844 0.00540637 -0.0670265 
-0.00715316 0.00696408 -0.0145622 
-0.00791191 0.00597526 -0.0864962 
-0.00708353 0.00705482 -0.0120029 
-0.00728434 0.00679313 -0.0274362 
-0.00716312 0.0069511 -0.0171646 
-0.00765437 0.0063109 -0.0926921 
-0.00795277 0.00592201 -0.0269863 
-0.00769446 0.00625865 -0.0370006 
-0.00775531 0.00617934 -0.032599 
-0.00830893 0.00545786 -0.0857854 
-0.00715638 0.00695989 0.0136304 
-0.00720263 0.00689961 -0.0259904 
-0.00771493 0.00623198 -0.0168182 
-0.00737286 0.00667777 0.0528287 
-0.00715097 0.00696693 -0.0829195 
-0.00748 0.00653813 -0.034051 
-0.00797323 0.00589535 -0.0628068 
-0.00809173 0.00574092 -0.0276415 
-0.00808757 0.00574634 0.0173807 
-0.0077795 0.00614782 0.0526393 
-0.0083344 0.00542466 -0.0488021 
-0.00853536 0.00516277 0.0228878 
-0.00825711 0.00552538 0.0461856 
-0.00843586 0.00529243 0.0362357 
-0.00800416 0.00585504 0.0472891 
-0.0080137 0.00584261 0.0553566 
-0.00781521 0.00610128 0.0573879 
-0.00773733 0.00620278 0.0208135 
-0.00864522 0.0050196 0.0462106 
-0.00723073 0.00686299 0.0906964 
-0.00831194 0.00545393 -0.0475335 
-0.00853728 0.00516026 0.0631374 
-0.00791162 0.00597563 0.0470149 
-0.00779966 0.00612155 0.081218 
-0.00757289 0.00641709 0.0897288 
-0.00779122 0.00613255 0.0513824 
-0.00797565 0.00589219 0.0198727 
-0.00938714 0.00324514 -0.0870674 
-0.00944243 0.00311167 -0.0971011 
-0.00903878 0.00408617 -0.070863 
-0.00887435 0.00448312 -0.0291605 
-0.00942796 0.0031466 -0.0544871 
-0.00870883 0.00488274 -0.0100582 
-0.00879844 0.0046664 0.0340567 
-0.00867546 0.00496329 -0.0549875 
-0.00914772 0.00382315 -0.0607159 
-0.00868688 0.00493572 0.0113772 
-0.0090866 0.0039707 -0.0160767 
-0.0090899 0.00396275 -0.0840445 
-0.00885398 0.00453231 -0.0757667 
-0.00910453 0.00392743 -0.0212019 
-0.00939824 0.00321833 -0.0922221 
-0.00870918 0.00488187 0.0422533 
-0.00869255 0.00492204 0.0246679 
-0.00936259 0.0033044 -0.0962213 
-0.00877368 0.00472617 0.0574547 
-0.0087417 0.00480338 0.0195287 
-0.00907893 0.00398923 0.0600518 
-0.00937479 0.00327497 0.004176 
-0.0089702 0.00425173 0.0653822 
-0.00940445 0.00320335 0.016174 
-0.00940127 0.00321103 0.0433118 
-0.00902626 0.00411639 0.0554598 
-0.00952627 0.00290925 0.0592857 
-0.00875634 0.00476803 0.0997085 
-0.00932887 0.00338581 0.058018 
-0.00934392 0.00334948 0.00682376 
-0.0092603 0.00355137 0.0171378 
-0.00935566 0.00332114 0.0986016 
-0.00952766 0.00290589 -0.0735772 
-0.00949845 0.00297642 0.0670884 
-0.00944675 0.00310122 0.0473032 
-0.00945404 0.00308362 0.0475915 
-0.00917812 0.00374975 0.0322924 
-0.00941565 0.00317631 0.0258455 
-0.00962873 0.00266188 -0.0403409 
-0.00875103 0.00478084 0.0967247 
-0.00965929 0.00258791 -0.0684854 
-0.00989893 0.000767694 -0.0627536 
-0.00966481 0.002546 0.041945 
-0.00971798 0.00214216 -0.0500843 
-0.00978708 0.00161733 -0.0138442 
-0.00968812 0.002369 0.0465691 
-0.00975453 0.00186452 -0.0283844 
-0.00970413 0.00224736 -0.0137658 
-0.00966179 0.00256894 -0.0253685 
-0.00966738 0.00252654 0.0275951 
-0.00975554 0.00185688 0.00104978 
-0.00969891 0.00228698 -0.05673 
-0.00981623 0.0013959 -0.00513354 
-0.00977912 0.00167778 -0.00321581 
-0.00974447 0.00194091 0.00762182 
-0.00975693 0.00184629 -0.0247564 
-0.00979453 0.00156073 -0.0927232 
-0.00967734 0.00245085 -0.0421213 
-0.00986655 0.00101365 -0.0721246 
-0.00989345 0.000809364 -0.096828 
-0.00977498 0.00170918 0.0845755 
-0.00980731 0.00146362 0.0493602 
-0.00990924 0.000689365 -0.0104603 
-0.00981542 0.001402 0.028575 
-0.00992768 0.000549352 -0.011589 
-0.00983581 0.00124717 0.0597451 
-0.00998615 0.000105175 -0.0135238 
-0.00980641 0.00147049 0.052547 
-0.00983078 0.00128533 0.00454889 
-0.00983875 0.0012248 0.0793833 
-0.00999048 7.23094e-05 -0.00185882 
-0.00995704 0.000326305 -0.0352062 
-0.00998325 0.000127255 0.0257563 
-0.00998523 0.000112149 0.090374 
-0.00990241 0.000741257 0.0727066 
-0.00983215 0.00127496 0.0226169 
-0.00981974 0.00136922 0.0142563 
-0.00992343 0.000581639 0.0687834 
-0.00992762 0.000549786 0.0054632 
-0.00987556 0.000945228 0.0144223 
-0.00994064 -0.000450891 -0.0183523 
-0.00990087 -0.000752966 0.0157168 
-0.00994592 -0.000410755 -0.0442108 
-0.00994979 -0.000381368 0.0215261 
-0.00988863 -0.000845958 -0.0844542 
-0.00983824 -0.00122872 -0.00224297 
-0.00993408 -0.000500748 0.0314175 
-0.00981917 -0.00137353 -0.0610919 
-0.00983583 -0.00124697 -0.00681939 
-0.00972496 -0.00208912 -0.0651252 
-0.00982007 -0.00136673 -0.0151903 
-0.00996279 -0.00028263 -0.0396345 
-0.00988536 -0.000870763 -0.0851988 
-0.00995991 -0.000304519 -0.0267621 
-0.00983249 -0.00127236 -0.0131269 
-0.00998182 -0.000138126 0.0372374 
-0.00973607 -0.00200476 -0.0711299 
-0.00999594 -3.08265e-05 0.0694172 
-0.00976841 -0.00175908 -0.0982274 
-0.00997333 -0.000202568 0.0160895 
-0.00975388 -0.00186944 -0.0234701 
-0.00980186 -0.001505 0.0676103 
-0.00990137 -0.000749161 0.0793058 
-0.00988646 -0.000862394 0.046695 
-0.00973077 -0.00204496 0.0230529 
-0.00968974 -0.00235663 -0.0611533 
-0.00976053 -0.00181897 -0.0397953 
-0.00993793 -0.000471443 0.0686919 
-0.00971788 -0.00214287 0.0795601 
-0.00966833 -0.00251925 0.0451494 
-0.00985074 -0.00113377 0.0392459 
-0.00966933 -0.00251172 0.0547397 
-0.00995198 -0.000364712 0.0854742 
-0.00973678 -0.00199935 0.0680603 
-0.00967566 -0.00246362 0.0308273 
-0.00971507 -0.00216425 -0.0254272 
-0.00973334 -0.00202549 0.0179475 
-0.00978828 -0.00160816 0.0576738 
-0.00992769 -0.000549232 0.0793976 
-0.00991386 -0.000654317 0.0895871 
-0.00954582 -0.00286206 -0.0573438 
-0.00924337 -0.00359222 -0.0968601 
-0.0096335 -0.00265038 -0.0832382 
-0.00936942 -0.00328792 -0.0857955 
-0.00902766 -0.004113 -0.0928369 
-0.00963907 -0.00263694 -0.0147414 
-0.00906093 -0.00403268 -0.041043 
-0.00888735 -0.00445173 -0.0831156 
-0.00892743 -0.00435497 -0.0732506 
-0.00954497 -0.00286412 -0.0275158 
-0.00906701 -0.00401801 -0.0240891 
-0.00938128 -0.00325929 -0.053039 
-0.00961767 -0.0026886 -0.0401492 
-0.00927264 -0.00352156 0.0108416 
-0.00929342 -0.00347139 -0.0858968 
-0.00934148 -0.00335538 -0.0371969 
-0.00898031 -0.00422731 -0.0431984 
-0.00962158 -0.00267916 0.0750132 
-0.00955035 -0.00285112 -0.00709322 
-0.00941749 -0.00317188 0.0410013 
-0.00894378 -0.0043155 0.0721169 
-0.0093291 -0.00338526 0.0812232 
-0.00871107 -0.00487732 0.0189752 
-0.00904533 -0.00407035 -0.00132591 
-0.00866883 -0.00497929 -0.0501144 
-0.00880947 -0.00463976 0.0592435 
-0.00903232 -0.00410175 0.0555653 
-0.00923 -0.0036245 0.0800853 
-0.00882271 -0.00460779 0.0129614 
-0.00867975 -0.00495294 0.0690877 
-0.00887845 -0.00447324 -0.03543 
-0.00914211 -0.0038367 0.00747099 
-0.00935035 -0.00333396 0.0390205 
-0.00925135 -0.00357297 0.092953 
-0.0092375 -0.00360642 0.0466452 
-0.00872242 -0.00484993 0.0923147 
-0.00870566 -0.00489038 0.0175926 
-0.00918217 -0.00373999 0.0417867 
-0.0094655 -0.00305596 0.0847097 
-0.00936951 -0.00328771 0.0833238 
-0.0082379 -0.00555042 -0.0907098 
-0.00847648 -0.00523949 -0.0575291 
-0.0085894 -0.00509233 -0.0535727 
-0.00830049 -0.00546886 0.0375096 
-0.00744143 -0.0065884 -0.0876443 
-0.00766562 -0.00629623 -0.0435096 
-0.00827617 -0.00550054 0.033078 
-0.00787519 -0.00602311 -0.0203949 
-0.00844897 -0.00527535 -0.0329302 
-0.00826103 -0.00552028 0.0104902 
-0.00809004 -0.00574312 0.00191224 
-0.00769994 -0.00625151 -0.0990007 
-0.00809358 -0.00573851 -0.0140657 
-0.00775947 -0.00617393 -0.0933256 
-0.00818548 -0.00561873 -0.0715213 
-0.00853705 -0.00516056 -0.0970298 
-0.0085389 -0.00515815 -0.0183088 
-0.00758064 -0.00640698 -0.0370574 
-0.00843679 -0.00529123 0.0494194 
-0.00769222 -0.00626157 -0.0639827 
-0.00728633 -0.00679053 0.06274 
-0.0079559 -0.00591793 0.0755425 
-0.00737097 -0.00668023 0.059966 
-0.0084576 -0.0052641 0.0879046 
-0.00713884 -0.00698275 0.00422866 
-0.00765697 -0.0063075 0.0255441 
-0.00761895 -0.00635705 0.0192861 
-0.00713494 -0.00698783 0.0869932 
-0.00761694 -0.00635967 0.067481 
-0.00757091 -0.00641967 0.0206573 
-0.00778961 -0.00613464 -0.0083406 
-0.00764558 -0.00632235 0.0366863 
-0.00765608 -0.00630867 -0.0153839 
-0.00774645 -0.00619089 -0.00668125 
-0.0081441 -0.00567267 0.063218 
-0.00810551 -0.00572296 0.0963201 
-0.00747944 -0.00653887 -0.0482559 
-0.00725067 -0.00683701 0.036408 
-0.00719675 -0.00690728 0.0975104 
-0.00752217 -0.00648318 0.0148098 
-0.00651956 -0.00749426 -0.0811891 
-0.00689079 -0.0072094 -0.0149654 
-0.00659142 -0.00743912 -0.0466799 
-0.00612194 -0.00779936 -0.0266594 
-0.00704871 -0.00708823 -0.0542095 
-0.00603006 -0.00786986 -0.0164341 
-0.00602053 -0.00787717 -0.00450582 
-0.00608839 -0.0078251 -0.0618873 
-0.00621631 -0.00772694 -0.0629281 
-0.00689323 -0.00720753 -0.0197922 
-0.00685733 -0.00723507 -0.0933359 
-0.00655804 -0.00746473 0.00141279 
-0.00658482 -0.00744417 -0.0935308 
-0.00587792 -0.0079866 -0.0333075 
-0.00646367 -0.00753714 -0.0980799 
-0.00611336 -0.00780594 -0.0132757 
-0.00529621 -0.00843296 -0.0884416 
-0.00598251 -0.00790634 -0.0935781 
-0.00697058 -0.00714818 -0.0148179 
-0.00661403 -0.00742176 0.0105325 
-0.00692682 -0.00718175 0.0967707 
-0.00662262 -0.00741517 0.063255 
-0.00641404 -0.00757523 0.0593427 
-0.0053994 -0.00835378 0.0151426 
-0.00547861 -0.00829301 0.0731946 
-0.00502868 -0.00863824 0.0911189 
-0.00574341 -0.00808982 0.0342961 
-0.00529582 -0.00843326 -0.014379 
-0.00621561 -0.00772748 0.0182565 
-0.00538826 -0.00836233 -0.0427113 
-0.00540529 -0.00834927 -0.0597811 
-0.00685834 -0.0072343 0.0966384 
-0.00585853 -0.00800148 0.0531863 
-0.00640892 -0.00757915 0.0690918 
-0.00590771 -0.00796374 0.05744 
-0.00501741 -0.0086469 0.00747962 
-0.00619401 -0.00774406 0.0829626 
-0.00589442 -0.00797394 0.044695 
-0.00500396 -0.00865721 -0.032314 
-0.00536453 -0.00838054 0.0726652 
-0.00401783 -0.00906708 -0.0926481 
-0.00495821 -0.00867756 -0.0626474 
-0.00466916 -0.00879729 0.000215925 
-0.00366006 -0.00921528 -0.0364055 
-0.00418409 -0.00899821 -0.0423025 
-0.00445434 -0.00888627 -0.0214434 
-0.00471764 -0.00877721 -0.0585651 
-0.00399365 -0.0090771 0.013996 
-0.00310333 -0.00944588 -0.0627365 
-0.00404976 -0.00905386 -0.0532853 
-0.00450585 -0.00886494 -0.0450495 
-0.00386532 -0.00913025 -0.0710956 
-0.00485761 -0.00871923 0.0361428 
-0.00453297 -0.00885371 -0.0483741 
-0.00351805 -0.0092741 -0.0832751 
-0.00359316 -0.00924299 -0.0961126 
-0.00389826 -0.00911661 -0.0586291 
-0.0045932 -0.00882876 -0.00573995 
-0.00349188 -0.00928494 -0.0523789 
-0.00340425 -0.00932124 -0.0408776 
-0.0039659 -0.00908859 0.0427154 
-0.00259407 -0.00965682 0.0994501 
-0.00375897 -0.00917431 0.0538227 
-0.00269002 -0.00961708 0.0552666 
-0.00400001 -0.00907446 0.0706174 
-0.0042757 -0.00896027 0.0785808 
-0.00276459 -0.00958619 0.0960506 
-0.00336401 -0.0093379 -0.0301269 
-0.00441948 -0.00890071 0.0814864 
-0.00351158 -0.00927678 -0.000256084 
-0.0030294 -0.0094765 0.032007 
-0.00273676 -0.00959772 -0.0382903 
-0.00337228 -0.00933448 0.0224076 
-0.00315324 -0.00942521 0.0455089 
-0.00272197 -0.00960385 0.0571684 
-0.00259384 -0.00965692 0.0379289 
-0.00325744 -0.00938205 0.00432494 
-0.00341423 -0.0093171 -0.00863409 
-0.00347771 -0.00929081 0.0619423 
-0.00313777 -0.00943161 0.018828 
-0.00133762 -0.0098239 -0.0683485 
-0.000873843 -0.00988496 -0.0748638 
-0.000701485 -0.00990765 -0.0692231 
-0.0021427 -0.00971791 -0.0409406 
-0.0011743 -0.0098454 -0.0785607 
-0.0012013 -0.00984185 -0.046811 
-0.00254838 -0.0096645 -0.0372799 
-0.0020019 -0.00973644 0.0212873 
-0.00140562 -0.00981495 -0.0466739 
-0.00251374 -0.00966906 -0.0170792 
-0.00193834 -0.00974481 0.035627 
-0.00195028 -0.00974324 -0.0999173 
-0.000895089 -0.00988216 -0.0660989 
-0.00233454 -0.00969265 0.0348435 
-0.00229038 -0.00969847 -0.0687362 
-0.00242665 -0.00968053 0.0200551 
-0.00238054 -0.0096866 -0.000693589 
-0.0014603 -0.00980775 -0.0577567 
-0.00161696 -0.00978712 -0.0380949 
-0.00141097 -0.00981424 0.035998 
-0.00140459 -0.00981508 0.0336195 
-0.00135249 -0.00982194 0.0357562 
-0.00065365 -0.00991395 0.0851662 
-9.54547e-06 -0.00999874 -0.0194809 
-0.00071852 -0.0099054 0.0782708 
-0.000807388 -0.00989371 0.0206181 
-0.000371132 -0.00995114 0.0982842 
-0.00130552 -0.00982813 0.0594988 
-0.00122992 -0.00983808 0.0490575 
-0.000870462 -0.0098854 0.0563803 
-0.0014515 -0.00980891 0.0235806 
-0.000272381 -0.00996414 -0.016805 
-0.000196274 -0.00997416 0.00492968 
-0.00153849 -0.00979745 0.0374255 
-0.00132717 -0.00982527 0.0351781 
-0.00110292 -0.0098548 0.0328411 
-0.000679469 -0.00991055 0.0982173 
-0.00101233 -0.00986672 0.083886 
-0.00169297 -0.00977712 0.0998747 
0.00224241 -0.00970478 -0.0971576 
0.000658289 -0.00991333 -0.0243578 
0.00110576 -0.00985442 -0.0703344 
0.000272437 -0.00996413 -0.0558743 
0.000516794 -0.00993196 0.0481038 
0.000827026 -0.00989112 -0.0925693 
0.00240067 -0.00968394 -0.0995483 
0.000758815 -0.0099001 0.0339968 
0.0016608 -0.00978135 -0.034922 
0.00252778 -0.00966721 -0.0962114 
0.000186511 -0.00997545 -0.0657521 
0.000948247 -0.00987516 0.00878135 
0.000851182 -0.00988794 -0.050758 
0.000745981 -0.00990179 -0.0212004 
0.000438841 -0.00994223 -0.00914084 
0.000986061 -0.00987018 0.00499395 
0.00129895 -0.00982899 -0.0458792 
0.000462286 -0.00993914 -0.0286686 
0.00159729 -0.00978971 -0.0413661 
0.000541324 -0.00992873 -0.0626924 
0.00251688 -0.00966865 0.0802095 
0.00203705 -0.00973182 -0.0113688 
0.00247398 -0.00967429 0.0715036 
0.00170297 -0.0097758 -0.0287893 
0.00232633 -0.00969373 0.0033645 
0.000318221 -0.00995811 0.088349 
0.0011171 -0.00985293 0.0867943 
0.0015064 -0.00980168 0.0361262 
0.000581785 -0.00992341 0.0675429 
0.00207383 -0.00972697 0.0875813 
0.00198919 -0.00973812 -0.0303751 
0.00207935 -0.00972625 0.0625245 
0.00180197 -0.00976276 -0.0270563 
0.00246313 -0.00967572 0.0935148 
0.00246612 -0.00967533 -0.0508796 
0.00249164 -0.00967197 -0.0465256 
0.000846728 -0.00988853 0.051072 
0.00129637 -0.00982933 0.0445404 
0.00232359 -0.00969409 0.070084 
0.00207778 -0.00972646 -0.0510127 
0.00324377 -0.00938771 0.00826837 
0.0035326 -0.00926807 0.0159511 
0.00367066 -0.00921088 -0.0545954 
0.00343791 -0.00930729 0.015268 
0.00348778 -0.00928663 -0.0750292 
0.00379375 -0.0091599 -0.0602246 
0.00277643 -0.00958129 -0.0247155 
0.00311873 -0.0094395 -0.0154157 
0.00277082 -0.00958361 0.0743112 
0.00371937 -0.00919071 -0.0657076 
0.00292441 -0.00951999 -0.00888135 
0.00291365 -0.00952445 0.00428072 
0.00394087 -0.00909896 -0.0526003 
0.00447966 -0.00887579 -0.0677829 
0.00429278 -0.00895319 -0.0423373 
0.00321864 -0.00939812 0.0156149 
0.00286053 -0.00954645 0.0388835 
0.00369965 -0.00919888 -0.0892269 
0.00313411 -0.00943313 -0.0348658 
0.00401423 -0.00906857 -0.0216933 
0.00318703 -0.00941121 0.0710235 
0.00406703 -0.0090467 0.0869365 
0.00427799 -0.00895932 0.0292154 
0.00407721 -0.00904249 0.0842543 
0.00391056 -0.00911151 0.0535411 
0.00406467 -0.00904768 0.0751583 
0.00389127 -0.00911951 0.0478254 
0.00451081 -0.00886288 -0.0315329 
0.00482692 -0.00873194 0.0733605 
0.00437872 -0.0089176 0.00131813 
0.00453282 -0.00885377 0.0487294 
0.00484974 -0.00872249 0.0269302 
0.00398806 -0.00907941 0.0152025 
0.00473223 -0.00877117 0.0186839 
0.00428715 -0.00895553 -0.0354476 
0.00389614 -0.00911749 0.0278179 
0.00433601 -0.00893529 0.0702475 
0.00417595 -0.00900158 0.0619481 
0.00499435 -0.00866259 -0.0507118 
0.00389139 -0.00911945 0.0959475 
0.00614886 -0.0077787 -0.0353651 
0.00637511 -0.0076051 -0.0729354 
0.00603996 -0.00786227 -0.0800885 
0.00574213 -0.0080908 -0.0516177 
0.00587795 -0.00798658 -0.0908808 
0.00555906 -0.00823127 -0.0408901 
0.00622517 -0.00772015 -0.0664432 
0.00600864 -0.00788629 -0.0524979 
0.00572515 -0.00810382 -0.0268814 
0.00616166 -0.00776888 -0.032489 
0.00506806 -0.00860803 0.0768177 
0.00598228 -0.00790652 -0.0635048 
0.00639015 -0.00759355 -0.0461173 
0.00576259 -0.0080751 0.0180862 
0.00595738 -0.00792563 -0.0851995 
0.00530676 -0.00842487 -0.00456545 
0.00552423 -0.008258 -0.0176076 
0.00584601 -0.00801109 0.00692032 
0.00535678 -0.00838648 0.0248682 
0.00507825 -0.00860021 0.00951686 
0.0060032 -0.00789047 0.0479824 
0.00615459 -0.0077743 0.0974157 
0.00605342 -0.00785194 0.0519647 
0.00562982 -0.00817697 0.0918152 
0.00648392 -0.0075216 0.0140755 
0.00625342 -0.00769847 0.087309 
0.00618204 -0.00775324 0.0734807 
0.00627733 -0.00768012 0.0284437 
0.00573831 -0.00809373 0.0301216 
0.00514599 -0.00854823 0.0935928 
0.0065028 -0.00750712 -0.0291897 
0.00685665 -0.0072356 0.0898236 
0.00604431 -0.00785892 0.0953598 
0.00696298 -0.00715401 -0.0530287 
0.00582073 -0.00803049 0.0742403 
0.00694449 -0.00716819 0.097335 
0.00546182 -0.00830589 0.0801503 
0.00674264 -0.00732308 0.0774458 
0.00705361 -0.00708446 -0.0372634 
0.00605003 -0.00785454 0.0452721 
0.00806375 -0.00577737 -0.0664971 
0.0076768 -0.00628166 -0.0970531 
0.00789758 -0.00599393 -0.0716483 
0.00735544 -0.00670047 0.0123455 
0.00754864 -0.00644869 -0.0570266 
0.00782075 -0.00609406 0.00392779 
0.00833263 -0.00542697 -0.0607979 
0.00737935 -0.00666931 0.0482522 
0.00790643 -0.0059824 -0.0971471 
0.00728934 -0.00678661 -0.033545 
0.00716675 -0.00694638 -0.020009 
0.00788128 -0.00601518 -0.0618681 
0.00732912 -0.00673477 0.0151794 
0.00816575 -0.00564445 -0.0406855 
0.00729282 -0.00678208 0.0175264 
0.00708784 -0.00704922 -0.00635169 
0.00744618 -0.00658222 0.0101809 
0.00813671 -0.0056823 -0.0846048 
0.00793221 -0.00594881 -0.0989513 
0.00864282 -0.00502272 0.0576345 
0.00832325 -0.00543919 -0.0499276 
0.00836024 -0.00539099 0.0839708 
0.00853725 -0.0051603 -0.0472562 
0.0075921 -0.00639204 0.0808684 
0.00763765 -0.00633269 0.0395974 
0.00863664 -0.00503077 0.00450712 
0.00728408 -0.00679346 0.0908668 
0.00820626 -0.00559165 0.0635979 
0.00811579 -0.00570955 -0.00587295 
0.00778802 -0.00613671 0.0737896 
0.00752199 -0.00648342 0.0795528 
0.00816395 -0.0056468 0.0409143 
0.00853004 -0.00516969 0.0598289 
0.00823284 -0.00555702 0.0879103 
0.00842712 -0.00530382 -0.0271362 
0.00746353 -0.0065596 0.0920383 
0.00837997 -0.00536527 -0.0586627 
0.00822579 -0.0055662 0.0410986 
0.00767657 -0.00628196 0.0836327 
0.00893317 -0.00434113 -0.0128531 
0.00946365 -0.00306043 -0.0615206 
0.00874066 -0.00480589 -0.0625242 
0.00927331 -0.00351995 -0.0834256 
0.00904619 -0.00406826 -0.00468312 
0.0092923 -0.0034741 -0.0604957 
0.00889252 -0.00443926 -0.0592378 
0.00881131 -0.00463531 0.024933 
0.00867891 -0.00495495 -0.0530715 
0.00913587 -0.00385176 -0.0102368 
0.00885176 -0.00453765 -0.0605914 
0.00943732 -0.00312401 -0.0628382 
0.00892994 -0.00434891 -0.031038 
0.00878382 -0.00470168 -0.0855687 
0.00949106 -0.00299425 -0.0844889 
0.00930923 -0.00343323 -0.0321918 
0.00931983 -0.00340764 -0.0532153 
0.00915107 -0.00381508 -0.0388391 
0.00876565 -0.00474555 -0.0197726 
0.008769 -0.00473745 -0.0417548 
0.00945774 -0.0030747 -0.0533643 
0.0091867 -0.00372905 0.0161109 
0.00951991 -0.00292461 0.00181244 
0.00961231 -0.00270153 -0.029969 
0.00950331 -0.00296469 0.0798795 
0.00958673 -0.00276329 -0.0767696 
0.00962208 -0.00267795 -0.0877754 
0.00948218 -0.0030157 0.0978718 
0.00934307 -0.00335154 0.0374663 
0.00872563 -0.00484216 0.0885215 
0.00916096 -0.00379119 0.00369663 
0.00938839 -0.00324211 0.0894198 
0.00956421 -0.00281766 -0.0164986 
0.00945606 -0.00307875 -0.00388442 
0.00893469 -0.00433746 0.0586179 
0.00955107 -0.00284937 -0.0392648 
0.00965427 -0.00260024 -0.0925002 
0.00930309 -0.00344805 0.0744829 
0.00917566 -0.0037557 0.09695 
0.00952652 -0.00290865 -0.0570386 
0.00971899 -0.00213446 0.040436 
0.00972063 -0.00212205 -0.0493881 
0.00973085 -0.00204439 -0.066782 
0.00978635 -0.00162286 -0.0221145 
0.00990263 -0.000739585 -0.0559129 
0.00975945 -0.00182712 -0.0387184 
0.00991463 -0.000648469 -0.0751781 
0.00991429 -0.00065102 -0.0915113 
0.0099116 -0.000671435 -0.0649057 
0.0097143 -0.00217011 -0.024198 
0.00970936 -0.00220765 0.02802 
0.00993355 -0.000504743 -0.0757162 
0.00974812 -0.00191324 0.0218289 
0.00987756 -0.000930037 -0.0602778 
0.00980567 -0.00147607 0.0021266 
0.00975 -0.00189891 0.0243753 
0.00968188 -0.00241639 -6.25029e-05 
0.00994417 -0.000424082 -0.0905055 
0.00970224 -0.00226169 -0.0337867 
0.009785 -0.00163308 -0.0151822 
0.0098323 -0.00127379 0.0978652 
0.00994122 -0.000446506 -0.00159663 
0.00990098 -0.000752162 0.057344 
0.00989572 -0.000792078 0.00178647 
0.00982655 -0.00131752 0.0169265 
0.00993379 -0.000502913 0.0879223 
0.00980447 -0.00148522 0.0520213 
0.00996517 -0.000264575 8.60542e-05 
0.00999752 -1.88103e-05 -0.0410295 
0.00977473 -0.00171109 0.0591639 
0.00977988 -0.00167201 0.0408756 
0.00985838 -0.00107568 0.061459 
0.00999874 -9.58599e-06 0.00268378 
0.00995029 -0.000377617 0.027673 
0.00979271 -0.00157452 0.097496 
0.00997506 -0.000189462 -0.0405721 
0.00996654 -0.000254155 -0.0684398 
0.00991227 -0.0006664 0.0497204 
0.00979118 -0.00158616 0.056885 
