ply
format ascii 1.0
comment Created by CloudCompare v2.11.3 (Anoia)
comment Created 6/30/25 9:54 PM
obj_info Generated by CloudCompare!
element vertex 1780
property float x
property float y
property float z
end_header
-24.0034 -28.4137 9.59918 
-23.6043 -28.4137 16.9021 
-29.9056 -28.4137 11.7267 
-30.8244 -28.4137 25.4588 
-20.4207 -28.4137 0.11466 
-28.8253 -28.4137 18.2495 
-14.1217 -28.4137 2.73256 
-26.1711 -28.4137 8.49829 
-16.8611 -28.4137 3.29718 
-28.2888 -28.4137 16.0594 
-30.1589 -28.4137 13.9975 
-22.6669 -28.4137 9.38385 
-31.7411 -28.4137 28.9074 
-29.7707 -28.4137 23.04 
-25.712 -28.4137 13.2025 
-26.4158 -28.4137 19.6269 
-28.8868 -28.4137 2.34693 
-26.3845 -28.4137 19.3008 
-29.3883 -28.4137 14.6996 
-22.8472 -28.4137 4.57462 
-21.955 -28.4137 11.0684 
-26.8411 -28.4137 20.5404 
-25.7768 -28.4137 20.6599 
-19.8598 -28.4137 0.735175 
-23.667 -28.4137 3.77377 
-31.8909 -28.4137 26.3209 
-29.8511 -28.4137 2.35334 
-26.1743 -28.4137 12.5734 
-19.4657 -28.4137 9.74453 
-26.3945 -28.4137 12.4324 
-22.586 -28.4137 2.87278 
-25.9641 -28.4137 7.66989 
-30.6853 -28.4137 16.1379 
-31.156 -28.4137 13.3291 
-25.1247 -28.4137 0.387514 
-26.9013 -28.4137 14.356 
-19.4703 -28.4137 8.8224 
-18.06 -28.4137 2.24692 
-18.5799 -28.4137 0.590951 
-23.644 -28.4137 14.0262 
-26.0471 -28.4137 14.1844 
-31.158 -28.4137 12.6456 
-23.3939 -28.4137 6.27776 
-23.4346 -28.4137 16.9412 
-27.2308 -28.4137 2.71139 
-23.3198 -28.4137 13.9426 
-28.2496 -28.4137 14.4055 
-26.2363 -28.4137 10.3543 
-31.7709 -28.4137 1.65528 
-17.8179 -28.4137 6.36318 
-28.7134 -28.4137 23.8682 
-13.1186 -28.4137 0.58184 
-29.9606 -28.4137 21.978 
-30.7537 -28.4137 7.1265 
-29.7297 -28.4137 2.20437 
-26.8012 -28.4137 14.332 
-29.7834 -28.4137 20.6229 
-28.7388 -28.4137 3.46881 
-18.1067 -28.4137 8.48261 
-20.0663 -28.4137 2.14913 
-30.7686 -28.4137 22.1577 
-17.448 -28.4137 8.1439 
-26.7058 -28.4137 9.05654 
-25.4871 -28.4137 3.33768 
-19.234 -28.4137 4.46154 
-30.6846 -28.4137 4.94935 
-22.5793 -28.4137 2.149 
-31.5566 -28.4137 1.03201 
-29.1887 -28.4137 5.05512 
-22.617 -28.4137 2.58561 
-13.9439 -28.4137 2.4148 
-16.9014 -28.4137 2.13462 
-30.7391 -28.4137 21.8193 
-29.8326 -28.4137 17.744 
-25.222 -28.4137 19.0467 
-31.3114 -28.4137 11.8984 
-28.5323 -28.4137 15.9173 
-24.0006 -28.4137 3.04594 
-30.2206 -28.4137 16.2888 
-31.4866 -28.4137 4.98911 
-22.9048 -28.4137 7.84226 
-19.9153 -28.4137 3.36824 
-21.1991 -28.4137 0.644566 
-16.7244 -28.4137 4.21628 
-28.8794 -28.4137 17.7612 
-15.3541 -28.4137 4.03435 
-24.2656 -28.4137 5.24929 
-21.6915 -28.4137 8.21804 
-28.5533 -28.4137 9.50737 
-22.3756 -28.4137 5.54501 
-14.869 -28.4137 1.59062 
-31.2242 -28.4137 5.29009 
-20.1013 -28.4137 1.31978 
-21.0555 -28.4137 1.23532 
-21.0197 -28.4137 1.64483 
-22.2326 -28.4137 5.99075 
-28.6495 -28.4137 4.82663 
-31.0986 -28.4137 28.0984 
-30.7474 -28.4137 16.2586 
-15.5368 -28.4137 4.81679 
-28.2506 -28.4137 1.54455 
-30.2117 -28.4137 14.5748 
-25.9156 -28.4137 14.6741 
-25.4841 -28.4137 19.4937 
-28.3057 -28.4137 23.9002 
-27.491 -28.4137 6.28956 
-27.7023 -28.4137 11.4272 
-31.2287 -28.4137 5.95627 
-26.7272 -28.4137 12.278 
-18.3106 -28.4137 3.17309 
-27.2356 -28.4137 13.1734 
-18.5859 -28.4137 2.86236 
-18.5037 -28.4137 6.76233 
-17.3668 -28.4137 2.2866 
-30.994 -28.4137 18.3809 
-28.5752 -28.4137 1.38017 
-17.5448 -28.4137 5.09529 
-27.5435 -28.4137 3.05043 
-26.3642 -28.4137 11.7454 
-17.9678 -28.4137 4.30716 
-28.9323 -28.4137 8.31019 
-16.9974 -28.4137 6.1755 
-31.3334 -28.4137 6.60248 
-14.7389 -28.4137 1.04069 
-31.6223 -28.4137 27.1625 
-26.3072 -28.4137 4.80406 
-20.6918 -28.4137 11.0354 
-23.4614 -28.4137 0.226458 
-17.7628 -28.4137 0.593985 
-25.4304 -28.4137 18.3432 
-25.1718 -28.4137 3.24538 
-23.0454 -28.4137 8.88095 
-21.8948 -28.4137 11.8318 
-28.1233 -28.4137 11.7041 
-25.7025 -28.4137 11.5657 
-20.4397 -28.4137 7.64849 
-22.3715 -28.4137 4.80202 
-31.3141 -28.4137 4.84196 
-25.9233 -28.4137 12.4992 
-23.0475 -28.4137 1.74312 
-25.9503 -28.4137 5.62641 
-19.6755 -28.4137 0.261419 
-29.3679 -28.4137 22.9875 
-20.7465 -28.4137 11.4323 
-22.8521 -28.4137 3.02645 
-26.5052 -28.4137 10.2754 
-13.9946 -28.4137 2.40521 
-29.9061 -28.4137 25.6574 
-29.6569 -28.4137 4.97859 
-21.7785 -28.4137 9.56049 
-23.4824 -28.4137 3.15321 
-28.3295 -28.4137 0.392353 
-23.8952 -28.4137 5.26736 
-26.5128 -28.4137 4.63417 
-23.2515 -28.4137 4.92652 
-27.332 -28.4137 15.2555 
-22.2686 -28.4137 13.9034 
-23.9772 -28.4137 5.94463 
-26.8765 -28.4137 8.46238 
-25.3738 -28.4137 16.5818 
-20.3273 -28.4137 1.18368 
-26.4486 -28.4137 6.57353 
-28.5698 -28.4137 10.8028 
-17.7964 -28.4137 2.16798 
-22.9905 -28.4137 12.8768 
-15.7711 -28.4137 2.37514 
-26.5009 -28.4137 13.662 
-26.794 -28.4137 6.31236 
-31.0524 -28.4137 17.842 
-30.7619 -28.4137 13.9999 
-15.5208 -28.4137 4.893 
-21.3402 -28.4137 0.235379 
-23.9051 -28.4137 6.79055 
-27.4914 -28.4137 21.107 
-25.3817 -28.4137 1.86587 
-31.1736 -28.4137 13.705 
-26.649 -28.4137 17.1426 
-29.1469 -28.4137 13.5694 
-17.0016 -28.4137 3.19494 
-28.1292 -28.4137 21.1086 
-23.8789 -28.4137 7.45649 
-21.4653 -28.4137 11.6035 
-29.8355 -28.4137 24.4748 
-24.0282 -28.4137 14.6455 
-28.194 -28.4137 6.93643 
-20.9553 -28.4137 12.5821 
-31.3095 -28.4137 8.27045 
-30.2382 -28.4137 3.18296 
-28.3586 -28.4137 8.65185 
-26.0823 -28.4137 16.6669 
-22.4982 -28.4137 11.9579 
-30.8312 -28.4137 1.31462 
-25.2648 -28.4137 19.3253 
-29.4571 -28.4137 3.83961 
-29.3097 -28.4137 14.294 
-25.8754 -28.4137 9.65123 
-18.4795 -28.4137 0.861567 
-29.9778 -28.4137 5.08081 
-17.4055 -28.4137 2.49149 
-28.9823 -28.4137 2.80776 
-26.1586 -28.4137 12.4394 
-15.4454 -28.4137 4.2322 
-23.1349 -28.4137 12.6653 
-15.6049 -28.4137 1.55716 
-23.993 -28.4137 17.7965 
-23.5924 -28.4137 17.5267 
-27.7858 -28.4137 14.0187 
-29.9291 -28.4137 7.46438 
-25.2298 -28.4137 8.42525 
-31.712 -28.4137 13.2153 
-21.2434 -28.4137 10.7 
-30.3406 -28.4137 0.333137 
-21.7304 -28.4137 2.05464 
-27.8628 -28.4137 10.7144 
-25.7164 -28.4137 1.93421 
-28.5541 -28.4137 22.3925 
-24.0707 -28.4137 2.03885 
-26.1674 -28.4137 14.2259 
-14.8672 -28.4137 4.12071 
-30.7447 -28.4137 4.90436 
-28.315 -28.4137 17.849 
-24.5847 -28.4137 16.1412 
-31.3441 -28.4137 11.2446 
-18.341 -28.4137 2.62198 
-31.8388 -28.4137 6.92276 
-16.9238 -28.4137 3.11899 
-31.7043 -28.4137 1.66845 
-21.9712 -28.4137 6.44765 
-25.2436 -28.4137 14.7623 
-26.6731 -28.4137 8.52956 
-25.0585 -28.4137 1.56741 
-27.5802 -28.4137 9.69829 
-26.7359 -28.4137 4.74612 
-29.5229 -28.4137 17.5777 
-17.616 -28.4137 7.43311 
-29.4611 -28.4137 25.6801 
-30.4952 -28.4137 14.025 
-26.8909 -28.4137 3.02983 
-21.3407 -28.4137 14.0792 
-19.9958 -28.4137 0.529787 
-29.9971 -28.4137 0.388803 
-24.9472 -28.4137 6.24141 
-16.9009 -28.4137 5.76953 
-17.0782 -28.4137 3.24098 
-18.7509 -28.4137 7.40582 
-23.7986 -28.4137 5.17963 
-23.0888 -28.4137 6.21824 
-24.9354 -28.4137 5.19772 
-22.6465 -28.4137 4.26507 
-29.6215 -28.4137 16.2092 
-25.1012 -28.4137 6.8756 
-28.9838 -28.4137 9.20076 
-14.4596 -28.4137 2.48807 
-29.6159 -28.4137 16.1273 
-13.3088 -28.4137 0.106247 
-20.1357 -28.4137 7.89306 
-27.0218 -28.4137 5.37545 
-26.6033 -28.4137 0.99043 
-28.7267 -28.4137 13.1678 
-22.6801 -28.4137 13.0936 
-27.1401 -28.4137 18.9399 
-22.5702 -28.4137 14.1335 
-29.9291 -28.4137 21.5023 
-26.3955 -28.4137 10.6309 
-29.3358 -28.4137 23.2457 
-25.7908 -28.4137 15.8224 
-19.1739 -28.4137 7.76287 
-26.9473 -28.4137 10.6655 
-27.3482 -28.4137 13.3305 
-27.1473 -28.4137 8.69015 
-29.565 -28.4137 21.1116 
-16.4138 -28.4137 6.52309 
-20.1164 -28.4137 0.955198 
-31.8178 -28.4137 14.8078 
-20.8449 -28.4137 9.76222 
-30.7269 -28.4137 7.80277 
-13.0881 -28.4137 0.918421 
-31.6178 -28.4137 10.0708 
-30.0982 -28.4137 25.7782 
-18.7134 -28.4137 2.55406 
-25.5458 -28.4137 16.3352 
-22.6562 -28.4137 6.96128 
-19.3921 -28.4137 4.87429 
-23.8487 -28.4137 13.029 
-19.921 -28.4137 11.9595 
-16.739 -28.4137 2.23151 
-20.416 -28.4137 3.46553 
-26.5876 -28.4137 0.608241 
-30.7541 -28.4137 25.424 
-25.3539 -28.4137 10.3937 
-24.8557 -28.4137 4.37366 
-23.5862 -28.4137 8.21261 
-29.9791 -28.4137 18.9739 
-28.8105 -28.4137 15.3142 
-27.0857 -28.4137 7.19773 
-28.2436 -28.4137 2.67224 
-27.9532 -28.4137 4.20976 
-23.31 -28.4137 1.38218 
-24.6938 -28.4137 0.0756283 
-31.0806 -28.4137 0.79687 
-24.4236 -28.4137 3.70262 
-26.8398 -28.4137 2.19179 
-18.9341 -28.4137 1.67662 
-22.8446 -28.4137 10.4883 
-29.9266 -28.4137 10.5148 
-31.275 -28.4137 22.8825 
-30.5343 -28.4137 26.341 
-30.9957 -28.4137 7.70727 
-27.3433 -28.4137 9.90774 
-22.7761 -28.4137 8.76614 
-25.4744 -28.4137 14.621 
-29.1483 -28.4137 1.34774 
-30.1665 -28.4137 6.93686 
-19.7072 -28.4137 0.841714 
-29.5587 -28.4137 23.5637 
-15.9594 -28.4137 5.33454 
-28.4342 -28.4137 21.8341 
-23.9146 -28.4137 8.22233 
-29.3289 -28.4137 15.6543 
-18.617 -28.4137 4.96111 
-31.5133 -28.4137 21.1481 
-20.4464 -28.4137 8.76838 
-24.1112 -28.4137 13.5706 
-25.2262 -28.4137 11.1776 
-25.496 -28.4137 1.17631 
-22.5078 -28.4137 7.22586 
-30.3514 -28.4137 9.88656 
-27.2728 -28.4137 2.09629 
-21.1116 -28.4137 12.9082 
-26.2381 -28.4137 1.78979 
-20.966 -28.4137 2.35706 
-22.3382 -28.4137 14.1303 
-18.8586 -28.4137 1.70388 
-28.7041 -28.4137 4.64918 
-20.5221 -28.4137 4.5159 
-30.0795 -28.4137 15.0547 
-16.8106 -28.4137 6.18089 
-20.6885 -28.4137 0.188131 
-25.4803 -28.4137 19.1453 
-27.1911 -28.4137 19.9589 
-30.9252 -28.4137 3.34462 
-29.2542 -28.4137 4.95204 
-18.0213 -28.4137 7.9663 
-18.5363 -28.4137 7.4319 
-21.8334 -28.4137 6.50775 
-23.6166 -28.4137 9.2148 
-28.7465 -28.4137 0.652115 
-26.5979 -28.4137 8.62996 
-21.7515 -28.4137 10.1089 
-30.5377 -28.4137 17.5642 
-31.0102 -28.4137 20.5581 
-29.3311 -28.4137 7.82302 
-27.0503 -28.4137 8.71879 
-20.3956 -28.4137 8.49799 
-17.8004 -28.4137 0.808402 
-24.7823 -28.4137 13.724 
-25.9027 -28.4137 8.16545 
-17.9811 -28.4137 4.74607 
-31.6255 -28.4137 23.6282 
-27.1489 -28.4137 22.1194 
-25.0785 -28.4137 8.32726 
-17.8838 -28.4137 3.48439 
-30.8593 -28.4137 17.4915 
-30.0652 -28.4137 13.6171 
-22.8169 -28.4137 6.83389 
-17.3624 -28.4137 1.12079 
-23.5808 -28.4137 0.0296911 
-19.4804 -28.4137 0.376727 
-29.8505 -28.4137 25.9714 
-31.3521 -28.4137 26.1438 
-19.3977 -28.4137 7.21018 
-23.424 -28.4137 1.61096 
-25.9516 -28.4137 15.2939 
-15.4346 -28.4137 1.73103 
-31.0988 -28.4137 24.7439 
-29.7051 -28.4137 17.6384 
-23.755 -28.4137 6.61733 
-24.8969 -28.4137 8.60329 
-29.1294 -28.4137 8.16979 
-29.7861 -28.4137 10.6492 
-29.0214 -28.4137 20.2872 
-13.8495 -28.4137 1.75452 
-27.2898 -28.4137 12.111 
-27.0308 -28.4137 20.4091 
-22.7227 -28.4137 2.4682 
-23.8847 -28.4137 0.442923 
-21.786 -28.4137 9.47632 
-12.9078 -28.4137 1.3775 
-30.4499 -28.4137 8.5538 
-24.5208 -28.4137 7.09974 
-28.8424 -28.4137 21.589 
-27.0445 -28.4137 17.0429 
-31.831 -28.4137 7.48438 
-25.4232 -28.4137 18.6401 
-17.3751 -28.4137 2.01138 
-25.3437 -28.4137 19.5718 
-30.1566 -28.4137 4.93201 
-19.0057 -28.4137 3.28631 
-27.6379 -28.4137 23.0678 
-20.3882 -28.4137 10.092 
-19.464 -28.4137 2.52548 
-31.8117 -28.4137 27.0614 
-15.3178 -28.4137 3.49883 
-31.6439 -28.4137 1.87629 
-28.2651 -28.4137 24.1773 
-24.6135 -28.4137 10.9132 
-29.876 -28.4137 3.73195 
-30.7481 -28.4137 24.4457 
-25.5223 -28.4137 5.49476 
-24.7743 -28.4137 13.5417 
-25.1004 -28.4137 18.9 
-31.3022 -28.4137 20.5165 
-22.1967 -28.4137 4.43833 
-15.0301 -28.4137 0.185353 
-22.0738 -28.4137 13.926 
-30.7774 -28.4137 24.8208 
-20.9689 -28.4137 11.3436 
-28.0915 -28.4137 9.21743 
-25.9312 -28.4137 14.5059 
-26.8034 -28.4137 20.5005 
-30.0433 -28.4137 25.1521 
-26.1286 -28.4137 13.4716 
-31.5177 -28.4137 1.84461 
-30.0623 -28.4137 1.57463 
-25.051 -28.4137 15.6441 
-19.5991 -28.4137 5.84635 
-25.7888 -28.4137 3.40644 
-24.98 -28.4137 18.7617 
-14.7146 -28.4137 3.48593 
-30.8415 -28.4137 27.2988 
-25.0811 -28.4137 12.7789 
-15.4426 -28.4137 0.565706 
-25.7887 -28.4137 14.7643 
-25.0159 -28.4137 0.877758 
-28.8436 -28.4137 17.2978 
-29.2392 -28.4137 6.26003 
-22.6451 -28.4137 5.73199 
-25.5951 -28.4137 18.6023 
-31.168 -28.4137 13.8158 
-17.8996 -28.4137 5.53335 
-22.3056 -28.4137 1.31526 
-26.2883 -28.4137 5.02078 
-14.3635 -28.4137 0.605453 
-25.0024 -28.4137 10.0481 
-29.9051 -28.4137 23.2303 
-28.1472 -28.4137 8.32413 
-30.1341 -28.4137 7.77663 
-21.6861 -28.4137 5.27787 
-17.5028 -28.4137 3.62197 
-26.8474 -28.4137 0.229194 
-24.021 -28.4137 5.3287 
-15.095 -28.4137 4.62716 
-22.3533 -28.4137 10.8443 
-29.515 -28.4137 1.43788 
-27.322 -28.4137 17.7484 
-19.1277 -28.4137 2.20166 
-15.8935 -28.4137 0.768172 
-28.2369 -28.4137 20.2907 
-26.9806 -28.4137 8.21772 
-28.0848 -28.4137 21.2619 
-28.5537 -28.4137 6.05411 
-27.7502 -28.4137 15.2292 
-29.8594 -28.4137 23.3785 
-18.8216 -28.4137 6.60519 
-19.0007 -28.4137 9.86455 
-22.935 -28.4137 7.33863 
-29.3808 -28.4137 23.3735 
-16.1132 -28.4137 5.41286 
-28.8094 -28.4137 0.815606 
-18.061 -28.4137 5.8805 
-26.117 -28.4137 8.76655 
-27.0048 -28.4137 3.87188 
-27.8416 -28.4137 2.64543 
-27.5735 -28.4137 4.3585 
-17.2283 -28.4137 2.70309 
-25.3079 -28.4137 10.2116 
-21.689 -28.4137 3.3295 
-17.0061 -28.4137 6.52711 
-29.3606 -28.4137 20.0925 
-29.4401 -28.4137 22.6567 
-23.3968 -28.4137 11.9373 
-29.9132 -28.4137 23.5815 
-28.9416 -28.4137 23.2367 
-24.6328 -28.4137 10.7999 
-27.9934 -28.4137 3.67757 
-22.4665 -28.4137 2.727 
-25.0288 -28.4137 5.1155 
-21.9665 -28.4137 4.8186 
-24.6111 -28.4137 11.8973 
-28.7999 -28.4137 2.24689 
-27.0995 -28.4137 8.11604 
-21.9809 -28.4137 10.7475 
-27.9335 -28.4137 11.5363 
-24.9977 -28.4137 13.9041 
-30.3319 -28.4137 13.1469 
-28.5658 -28.4137 19.8992 
-30.8583 -28.4137 3.94128 
-26.744 -28.4137 0.878837 
-13.6149 -28.4137 0.629075 
-29.9784 -28.4137 1.93847 
-24.669 -28.4137 12.009 
-29.9035 -28.4137 3.84367 
-26.8085 -28.4137 21.1147 
-29.0877 -28.4137 25.7647 
-27.1392 -28.4137 16.3997 
-25.1144 -28.4137 7.14383 
-30.7619 -28.4137 4.8087 
-30.3148 -28.4137 1.3532 
-26.0069 -28.4137 17.6964 
-17.0065 -28.4137 4.69465 
-29.5473 -28.4137 1.7881 
-31.0566 -28.4137 14.3437 
-20.5656 -28.4137 0.443107 
-18.6753 -28.4137 3.71025 
-27.8718 -28.4137 6.67632 
-23.898 -28.4137 6.16812 
-28.331 -28.4137 6.42519 
-17.5189 -28.4137 1.28969 
-20.751 -28.4137 11.1541 
-20.4836 -28.4137 2.71366 
-31.6378 -28.4137 10.9596 
-28.4288 -28.4137 21.3571 
-19.4738 -28.4137 1.12429 
-20.3522 -28.4137 4.05846 
-15.9701 -28.4137 3.69946 
-29.4314 -28.4137 17.0528 
-19.824 -28.4137 8.20553 
-21.3634 -28.4137 4.4094 
-14.0312 -28.4137 1.07483 
-26.0656 -28.4137 2.82788 
-21.8381 -28.4137 13.4754 
-29.5391 -28.4137 7.22715 
-28.6131 -28.4137 14.5458 
-16.3663 -28.4137 4.60514 
-27.0264 -28.4137 13.4693 
-14.764 -28.4137 3.31293 
-29.2286 -28.4137 10.5361 
-15.4278 -28.4137 0.323825 
-28.4286 -28.4137 19.0151 
-22.3582 -28.4137 1.95686 
-26.0125 -28.4137 18.3111 
-27.0666 -28.4137 10.1758 
-28.6272 -28.4137 15.9388 
-26.3801 -28.4137 4.87484 
-28.8553 -28.4137 12.6251 
-31.4489 -28.4137 3.73819 
-28.2587 -28.4137 20.6861 
-22.2402 -28.4137 14.5632 
-24.49 -28.4137 9.30983 
-29.2289 -28.4137 2.83127 
-18.7958 -28.4137 6.21817 
-22.8097 -28.4137 2.25531 
-25.0739 -28.4137 9.90091 
-31.6145 -28.4137 24.9416 
-15.3231 -28.4137 3.64028 
-12.8701 -28.4137 0.825595 
-25.8891 -28.4137 18.3848 
-22.0124 -28.4137 3.01745 
-31.1865 -28.4137 1.14547 
-20.324 -28.4137 8.93752 
-31.8999 -28.4137 19.9007 
-25.0204 -28.4137 12.7235 
-31.2908 -28.4137 1.91258 
-24.9555 -28.4137 7.39443 
-26.1353 -28.4137 15.8346 
-23.8867 -28.4137 7.86415 
-27.4216 -28.4137 4.1342 
-22.889 -28.4137 10.0373 
-31.1037 -28.4137 4.33908 
-18.6183 -28.4137 8.95595 
-30.5725 -28.4137 1.33103 
-30.927 -28.4137 28.388 
-31.7378 -28.4137 6.15438 
-27.743 -28.4137 13.8364 
-19.7325 -28.4137 11.4616 
-21.1531 -28.4137 12.4611 
-27.3478 -28.4137 15.8131 
-29.1883 -28.4137 1.97921 
-30.6415 -28.4137 20.6638 
-27.0633 -28.4137 18.5432 
-15.0946 -28.4137 0.00362819 
-20.868 -28.4137 5.08396 
-30.6551 -28.4137 25.8732 
-19.5935 -28.4137 7.03929 
-27.8762 -28.4137 9.61513 
-27.2562 -28.4137 7.35408 
-13.224 -28.4137 0.9469 
-15.175 -28.4137 0.658929 
-31.1097 -28.4137 13.0032 
-20.8613 -28.4137 2.1431 
-28.585 -28.4137 15.5388 
-26.6021 -28.4137 12.6064 
-30.9156 -28.4137 26.535 
-18.4951 -28.4137 1.39095 
-27.447 -28.4137 13.6568 
-24.6523 -28.4137 3.86567 
-28.9235 -28.4137 3.63465 
-28.801 -28.4137 6.94893 
-17.2866 -28.4137 2.41447 
-18.7241 -28.4137 1.43767 
-28.6141 -28.4137 4.77006 
-19.1404 -28.4137 3.26337 
-23.1043 -28.4137 2.01394 
-29.5885 -28.4137 4.54194 
-22.0867 -28.4137 13.0025 
-28.829 -28.4137 21.9869 
-13.2201 -28.4137 0.703557 
-21.0367 -28.4137 2.11017 
-27.1091 -28.4137 2.48377 
-30.0556 -28.4137 26.7478 
-18.8853 -28.4137 4.59885 
-27.4676 -28.4137 20.0172 
-29.4073 -28.4137 6.93314 
-26.7529 -28.4137 17.0391 
-27.8063 -28.4137 2.7362 
-22.05 -28.4137 4.75334 
-26.5534 -28.4137 1.065 
-16.3951 -28.4137 0.088892 
-23.3719 -28.4137 0.0879521 
-29.2645 -28.4137 11.4578 
-31.2467 -28.4137 18.4391 
-17.9182 -28.4137 1.04959 
-26.4938 -28.4137 17.4301 
-27.4658 -28.4137 13.4533 
-29.2856 -28.4137 2.01688 
-23.8095 -28.4137 17.4717 
-29.4029 -28.4137 14.7954 
-30.9486 -28.4137 7.33447 
-23.1614 -28.4137 11.2963 
-30.3164 -28.4137 14.4691 
-22.2567 -28.4137 1.95362 
-21.671 -28.4137 1.07627 
-19.7254 -28.4137 7.93994 
-13.9967 -28.4137 2.90815 
-31.2485 -28.4137 10.7809 
-25.2278 -28.4137 4.67303 
-28.4708 -28.4137 15.5772 
-23.0442 -28.4137 7.71044 
-23.1948 -28.4137 12.9973 
-28.5559 -28.4137 22.6737 
-31.6554 -28.4137 0.124104 
-29.9979 -28.4137 1.39332 
-23.7864 -28.4137 7.25675 
-26.7309 -28.4137 4.30013 
-31.6268 -28.4137 4.33144 
-28.9535 -28.4137 24.3674 
-30.3803 -28.4137 26.3912 
-22.4456 -28.4137 2.84086 
-22.4031 -28.4137 5.33396 
-22.4799 -28.4137 4.49989 
-31.7281 -28.4137 20.5773 
-29.7729 -28.4137 2.90419 
-23.0961 -28.4137 2.54285 
-31.3835 -28.4137 5.4932 
-26.0937 -28.4137 13.4348 
-28.1345 -28.4137 2.29323 
-30.7114 -28.4137 0.776015 
-22.277 -28.4137 10.8348 
-24.2363 -28.4137 5.99991 
-27.8895 -28.4137 8.4045 
-23.1998 -28.4137 4.81888 
-30.0406 -28.4137 20.055 
-27.1775 -28.4137 14.7954 
-31.2011 -28.4137 11.2179 
-29.3256 -28.4137 13.5129 
-18.8105 -28.4137 3.5676 
-19.3942 -28.4137 2.31304 
-21.7203 -28.4137 9.14943 
-28.905 -28.4137 15.3397 
-31.1593 -28.4137 27.8508 
-25.5389 -28.4137 14.3901 
-19.4245 -28.4137 6.46067 
-29.4606 -28.4137 19.6444 
-31.0429 -28.4137 11.1415 
-23.171 -28.4137 12.3491 
-25.3294 -28.4137 5.92507 
-24.8857 -28.4137 10.3376 
-29.144 -28.4137 2.91829 
-31.8031 -28.4137 27.1405 
-20.5448 -28.4137 4.26424 
-23.1399 -28.4137 3.23278 
-21.6033 -28.4137 4.12942 
-23.2736 -28.4137 15.4763 
-28.1529 -28.4137 20.8197 
-29.7027 -28.4137 20.0763 
-18.6161 -28.4137 2.76414 
-28.7633 -28.4137 22.0291 
-19.7652 -28.4137 1.15185 
-21.4468 -28.4137 2.41535 
-26.0777 -28.4137 9.46012 
-28.6579 -28.4137 15.1781 
-28.0006 -28.4137 3.60432 
-31.9031 -25.9846 4.62293 
-31.9031 -14.4754 27.4155 
-31.9031 -23.4336 21.8512 
-31.9031 -27.3699 17.3672 
-31.9031 -26.4018 16.8589 
-31.9031 -10.8714 28.4682 
-31.9031 -17.9481 19.0328 
-31.9031 -27.1474 29.2843 
-31.9031 -19.0005 25.6939 
-31.9031 -23.2052 23.2416 
-31.9031 -24.2304 22.5523 
-31.9031 -25.4488 12.2477 
-31.9031 -27.8742 23.4548 
-31.9031 -21.0503 16.6661 
-31.9031 -19.1545 14.0379 
-31.9031 -14.3194 26.3161 
-31.9031 -26.5456 25.5911 
-31.9031 -20.4286 13.0987 
-31.9031 -16.1395 19.4601 
-31.9031 -23.8222 25.2475 
-31.9031 -22.2397 28.8187 
-31.9031 -19.7271 21.5533 
-31.9031 -12.0058 28.3036 
-31.9031 -21.8941 18.5195 
-31.9031 -18.4018 29.8696 
-31.9031 -19.1087 14.1025 
-31.9031 -22.9176 22.9785 
-31.9031 -17.1373 27.7108 
-31.9031 -16.2587 29.971 
-31.9031 -17.8809 16.3054 
-31.9031 -26.5278 14.8198 
-31.9031 -27.169 6.61853 
-31.9031 -28.391 6.77406 
-31.9031 -27.55 2.59646 
-31.9031 -25.1008 25.8493 
-31.9031 -21.8863 20.8963 
-31.9031 -27.8755 5.41687 
-31.9031 -18.1387 28.0358 
-31.9031 -14.9098 24.7154 
-31.9031 -16.2335 20.4767 
-31.9031 -24.8337 5.37378 
-31.9031 -11.8057 29.9911 
-31.9031 -20.9774 17.2901 
-31.9031 -27.9583 21.1543 
-31.9031 -13.8951 26.0227 
-31.9031 -25.2559 13.9892 
-31.9031 -17.0551 17.7009 
-31.9031 -22.1229 28.6685 
-31.9031 -21.2457 27.815 
-31.9031 -23.6129 10.3136 
-31.9031 -25.176 29.1264 
-31.9031 -15.2238 24.4403 
-31.9031 -19.0465 21.8593 
-31.9031 -18.3153 29.3346 
-31.9031 -25.1312 6.02869 
-31.9031 -27.7176 14.9442 
-31.9031 -15.3616 20.5526 
-31.9031 -25.5341 4.48063 
-31.9031 -24.3363 8.34211 
-31.9031 -22.6203 14.0735 
-31.9031 -25.8059 9.22531 
-31.9031 -27.0169 22.9749 
-31.9031 -24.4138 17.1492 
-31.9031 -24.0235 23.7871 
-31.9031 -25.2408 28.4976 
-31.9031 -18.8367 29.8231 
-31.9031 -14.0138 28.3486 
-31.9031 -18.162 23.9454 
-31.9031 -11.7664 28.0862 
-31.9031 -16.922 22.6915 
-31.9031 -14.5664 21.8043 
-31.9031 -15.8256 20.894 
-31.9031 -26.8009 26.1281 
-31.9031 -13.4013 28.7071 
-31.9031 -25.6115 10.7923 
-31.9031 -24.5554 9.15562 
-31.9031 -19.3394 19.526 
-31.9031 -27.0373 12.972 
-31.9031 -25.0249 23.0767 
-31.9031 -21.0922 15.3538 
-31.9031 -22.3872 15.5597 
-31.9031 -14.7508 25.9262 
-31.9031 -27.6708 3.27384 
-31.9031 -10.1355 27.977 
-31.9031 -27.5692 27.579 
-31.9031 -13.2585 27.1277 
-31.9031 -14.8204 26.5993 
-31.9031 -11.3539 27.1755 
-31.9031 -23.1292 29.2675 
-31.9031 -27.3715 19.4291 
-31.9031 -21.3917 12.9352 
-31.9031 -21.5423 23.8168 
-31.9031 -23.7333 14.9451 
-31.9031 -25.7542 18.305 
-31.9031 -18.5741 26.4583 
-31.9031 -27.6875 21.6755 
-31.9031 -26.9086 22.0667 
-31.9031 -16.7803 17.8664 
-31.9031 -11.7073 27.7948 
-31.9031 -14.1356 27.4374 
-31.9031 -22.3226 22.1697 
-31.9031 -25.704 23.7703 
-31.9031 -20.2341 27.4021 
-31.9031 -20.6148 18.9878 
-31.9031 -25.7976 15.4267 
-31.9031 -26.2357 13.4181 
-31.9031 -18.8955 20.5795 
-31.9031 -24.1665 18.0315 
-31.9031 -22.2336 10.2312 
-31.9031 -20.3796 15.7387 
-31.9031 -14.6476 26.8826 
-31.9031 -27.1311 7.59076 
-31.9031 -27.4975 17.9516 
-31.9031 -25.5466 9.17261 
-31.9031 -22.6124 21.4191 
-31.9031 -25.0006 24.3913 
-31.9031 -22.2538 15.2599 
-31.9031 -13.7346 28.7496 
-31.9031 -26.9379 21.1267 
-31.9031 -21.444 25.5457 
-31.9031 -15.8265 25.3791 
-31.9031 -19.7149 28.747 
-31.9031 -24.8891 13.5791 
-31.9031 -17.7172 26.2763 
-31.9031 -13.6378 28.9147 
-31.9031 -11.8079 25.1612 
-31.9031 -28.0681 29.0935 
-31.9031 -23.7376 22.5161 
-31.9031 -24.9937 5.90114 
-31.9031 -23.0281 26.5522 
-31.9031 -23.4315 29.5682 
-31.9031 -23.0932 11.7364 
-31.9031 -22.4252 26.894 
-31.9031 -21.9808 26.533 
-31.9031 -16.0391 19.2152 
-31.9031 -19.1056 14.1635 
-31.9031 -27.6531 26.6843 
-31.9031 -12.4173 26.9816 
-31.9031 -24.1971 23.1621 
-31.9031 -19.3657 18.0105 
-31.9031 -15.0699 27.3956 
-31.9031 -21.2394 13.4229 
-31.9031 -24.0609 11.6366 
-31.9031 -28.0505 18.068 
-31.9031 -26.8651 28.6266 
-31.9031 -14.3205 21.1517 
-31.9031 -22.4551 26.0027 
-31.9031 -18.8099 23.6634 
-31.9031 -25.9379 14.681 
-31.9031 -25.4736 7.64056 
-31.9031 -28.0044 29.4592 
-31.9031 -24.7135 25.5122 
-31.9031 -26.0627 13.6095 
-31.9031 -26.4749 3.16096 
-31.9031 -17.7987 29.1399 
-31.9031 -26.4746 15.1028 
-31.9031 -12.9651 29.1969 
-31.9031 -17.5572 16.5748 
-31.9031 -15.9967 28.2822 
-31.9031 -24.2202 16.5716 
-31.9031 -27.1166 19.3418 
-31.9031 -25.7659 15.9924 
-31.9031 -24.7449 15.9433 
-31.9031 -28.0922 6.51311 
-31.9031 -27.2055 14.1345 
-31.9031 -26.8256 12.8537 
-31.9031 -14.4534 22.1493 
-31.9031 -14.7046 23.6363 
-31.9031 -26.9524 23.6027 
-31.9031 -25.3315 22.0774 
-31.9031 -27.8573 7.60334 
-31.9031 -9.42549 29.2787 
-31.9031 -23.2161 15.1642 
-31.9031 -11.9299 25.0654 
-31.9031 -25.0796 6.58489 
-31.9031 -26.2883 17.3295 
-31.9031 -14.0942 27.0608 
-31.9031 -26.672 12.1934 
-31.9031 -23.7518 18.5328 
-31.9031 -13.8994 23.0567 
-31.9031 -11.5198 26.7667 
-31.9031 -26.6139 13.4999 
-31.9031 -25.0225 22.3063 
-31.9031 -13.0878 25.278 
-31.9031 -23.7412 18.8561 
-31.9031 -24.8639 25.2466 
-31.9031 -26.426 10.6805 
-31.9031 -18.3431 22.3686 
-31.9031 -25.7916 6.30784 
-31.9031 -20.3601 26.9893 
-31.9031 -25.4724 10.3779 
-31.9031 -26.5292 26.4162 
-31.9031 -18.6894 22.4647 
-31.9031 -11.6945 25.7478 
-31.9031 -19.866 22.8371 
-31.9031 -26.6192 29.9781 
-31.9031 -26.9904 23.0356 
-31.9031 -21.6107 15.3186 
-31.9031 -13.1901 27.8281 
-31.9031 -23.6631 20.9113 
-31.9031 -9.19328 29.4341 
-31.9031 -24.9959 25.977 
-31.9031 -25.3512 22.6662 
-31.9031 -14.9371 27.8846 
-31.9031 -12.912 29.6745 
-31.9031 -24.5304 29.5745 
-31.9031 -17.8415 23.6861 
-31.9031 -21.0645 26.2823 
-31.9031 -25.401 29.5826 
-31.9031 -13.5087 28.1712 
-31.9031 -23.908 26.4095 
-31.9031 -19.6529 23.3709 
-31.9031 -22.4263 28.0894 
-31.9031 -19.1036 15.6088 
-31.9031 -20.146 18.3532 
-31.9031 -24.5893 7.05703 
-31.9031 -15.8091 25.6943 
-31.9031 -24.0721 27.2703 
-31.9031 -10.758 27.9154 
-31.9031 -27.8215 26.5973 
-31.9031 -27.4474 2.56404 
-31.9031 -25.8342 8.59422 
-31.9031 -26.2788 16.2424 
-31.9031 -27.5966 4.6858 
-31.9031 -27.6269 27.9298 
-31.9031 -25.2906 10.4442 
-31.9031 -14.4605 25.4499 
-31.9031 -21.2139 13.1742 
-31.9031 -21.1496 19.4495 
-31.9031 -23.6921 24.4924 
-31.9031 -25.5036 9.39293 
-31.9031 -21.4878 12.6407 
-31.9031 -14.5506 22.6516 
-31.9031 -18.5359 18.5546 
-31.9031 -16.6775 19.9515 
-31.9031 -20.5556 14.3627 
-31.9031 -14.9332 22.4658 
-31.9031 -20.4181 12.3181 
-31.9031 -21.3896 26.2947 
-31.9031 -26.5902 17.7507 
-31.9031 -22.6989 22.4318 
-31.9031 -22.7032 15.3928 
-31.9031 -27.1253 4.69384 
-31.9031 -27.5487 14.5818 
-31.9031 -27.8898 2.68222 
-31.9031 -26.9149 26.6921 
-31.9031 -18.6682 16.0912 
-31.9031 -26.1772 4.55033 
-31.9031 -20.6343 28.8933 
-31.9031 -24.9817 16.7826 
-31.9031 -24.3624 13.0391 
-31.9031 -25.635 29.95 
-31.9031 -18.9018 25.8127 
-31.9031 -21.2205 18.003 
-31.9031 -27.3358 5.65957 
-31.9031 -25.7157 17.8956 
-31.9031 -25.3348 4.72832 
-31.9031 -19.6523 19.2706 
-31.9031 -17.9168 16.1613 
-31.9031 -19.5355 26.2776 
-31.9031 -23.481 21.16 
-31.9031 -19.6604 24.0211 
-31.9031 -23.9606 28.5187 
-31.9031 -23.4449 11.2306 
-31.9031 -12.3887 25.4742 
-31.9031 -25.0987 23.8994 
-31.9031 -23.0034 26.3762 
-31.9031 -26.5393 4.1124 
-31.9031 -26.8776 26.3473 
-31.9031 -21.9691 27.7893 
-31.9031 -23.1498 14.3611 
-31.9031 -23.4373 17.7893 
-31.9031 -20.8227 19.4901 
-31.9031 -21.1905 14.7721 
-31.9031 -26.7732 14.005 
-31.9031 -25.8244 12.1329 
-31.9031 -9.81789 29.9556 
-31.9031 -22.0083 19.6616 
-31.9031 -18.8834 21.345 
-31.9031 -20.9836 25.5005 
-31.9031 -25.652 28.9201 
-31.9031 -27.3996 5.62696 
-31.9031 -18.8445 14.553 
-31.9031 -22.1825 27.2058 
-31.9031 -26.7255 16.4436 
-31.9031 -20.8617 22.728 
-31.9031 -14.2366 25.5078 
-31.9031 -23.42 17.9331 
-31.9031 -19.8686 29.5379 
-31.9031 -21.7806 20.9962 
-31.9031 -22.3316 14.074 
-31.9031 -22.9651 13.4321 
-31.9031 -15.601 29.8316 
-31.9031 -19.2519 29.2668 
-31.9031 -24.8311 14.7028 
-31.9031 -27.4874 17.0361 
-31.9031 -26.7807 5.45311 
-31.9031 -27.3521 23.6296 
-31.9031 -14.8058 28.8677 
-31.9031 -12.9313 26.08 
-31.9031 -22.9301 10.7322 
-31.9031 -25.5904 12.0184 
-31.9031 -16.5605 18.2958 
-31.9031 -26.5689 8.85149 
-31.9031 -27.3839 26.397 
-31.9031 -24.7593 23.9921 
-31.9031 -16.6241 17.9312 
-31.9031 -25.3961 25.3882 
-31.9031 -26.0261 19.8522 
-31.9031 -15.8646 29.6443 
-31.9031 -22.2757 27.4537 
-31.9031 -22.3418 28.3398 
-31.9031 -24.1015 14.8427 
-31.9031 -24.9001 23.4638 
-31.9031 -18.6522 24.1417 
-31.9031 -14.9929 23.9058 
-31.9031 -22.4063 27.5797 
-31.9031 -20.6613 28.6558 
-31.9031 -27.8075 12.4205 
-31.9031 -26.1884 4.48795 
-31.9031 -19.7667 25.709 
-31.9031 -23.245 17.3927 
-31.9031 -28.136 26.4563 
-31.9031 -27.2256 27.5906 
-31.9031 -27.1996 14.976 
-31.9031 -24.4071 21.2311 
-31.9031 -28.4122 28.7217 
-31.9031 -24.6985 26.2224 
-31.9031 -26.9017 18.8913 
-31.9031 -16.0451 21.8381 
-31.9031 -23.1663 22.0501 
-31.9031 -22.0799 21.2227 
-31.9031 -27.5767 18.6288 
-31.9031 -24.4213 10.6313 
-31.9031 -16.5451 29.4639 
-31.9031 -18.3635 22.7975 
-31.9031 -20.8856 29.6899 
-31.9031 -25.6135 25.8097 
-31.9031 -22.0364 10.5547 
-31.9031 -21.811 26.1999 
-31.9031 -20.0682 22.0497 
-31.9031 -23.1555 16.5498 
-31.9031 -19.1006 16.8681 
-31.9031 -21.3272 27.109 
-31.9031 -19.1474 28.2116 
-31.9031 -27.2439 23.8442 
-31.9031 -25.0406 26.6916 
-31.9031 -21.2335 12.1996 
-31.9031 -25.4703 28.9112 
-31.9031 -16.9419 28.8218 
-31.9031 -27.3746 10.0773 
-31.9031 -26.4817 11.3216 
-31.9031 -15.2468 25.5698 
-31.9031 -17.8737 17.7679 
-31.9031 -24.4342 18.3741 
-31.9031 -16.4952 21.5974 
-31.9031 -18.7274 21.1083 
-31.9031 -25.6198 6.14769 
-31.9031 -27.1331 15.5859 
-31.9031 -21.6799 16.9162 
-31.9031 -22.6187 18.723 
-31.9031 -26.7274 14.6935 
-31.9031 -18.7534 19.4725 
-31.9031 -14.3264 29.8158 
-31.9031 -22.605 23.1436 
-31.9031 -27.5685 7.22964 
-31.9031 -20.4452 14.0889 
-31.9031 -23.3431 13.5339 
-31.9031 -25.7039 27.7457 
-31.9031 -12.0008 27.295 
-31.9031 -24.2645 7.38198 
-31.9031 -16.266 23.5992 
-31.9031 -25.4007 28.044 
-31.9031 -27.9715 20.5652 
-31.9031 -12.8681 28.5987 
-31.9031 -18.9779 17.5103 
-31.9031 -9.98178 28.6377 
-31.9031 -27.3511 10.7853 
-31.9031 -27.0947 8.72456 
-31.9031 -24.3572 27.8652 
-31.9031 -24.8785 27.1421 
-31.9031 -21.2213 14.2294 
-31.9031 -20.4553 18.1459 
-31.9031 -14.4275 23.9883 
-31.9031 -25.7698 11.2834 
-31.9031 -24.2521 6.29615 
-31.9031 -16.9926 21.498 
-31.9031 -24.2511 15.4821 
-31.9031 -19.7936 21.7207 
-31.9031 -18.8808 23.7202 
-31.9031 -25.4087 27.9127 
-31.9031 -17.3434 26.4831 
-31.9031 -23.3968 8.24251 
-31.9031 -27.2359 11.3836 
-31.9031 -14.3314 24.0233 
-31.9031 -23.7189 12.7989 
-31.9031 -13.0573 24.9369 
-31.9031 -14.3681 26.5443 
-31.9031 -20.269 26.8071 
-31.9031 -21.8018 15.6471 
-31.9031 -22.4784 17.126 
-31.9031 -19.5382 19.3476 
-31.9031 -26.802 15.3597 
-31.9031 -27.7581 23.92 
-31.9031 -13.5167 27.876 
-31.9031 -10.2917 28.2316 
-31.9031 -23.7973 18.6825 
-31.9031 -15.0866 21.0507 
-31.9031 -25.9991 17.0784 
-31.9031 -27.0697 10.3382 
-31.9031 -22.3456 9.68829 
-31.9031 -27.4185 16.8349 
-31.9031 -11.9136 28.8458 
-31.9031 -15.1346 23.1443 
-31.9031 -15.4763 19.449 
-31.9031 -18.8845 25.3302 
-31.9031 -27.8854 17.1081 
-31.9031 -25.0483 28.4837 
-31.9031 -26.3381 12.0125 
-31.9031 -16.2609 26.0626 
-31.9031 -26.1186 16.4378 
-31.9031 -19.233 13.8007 
-31.9031 -20.0248 17.8609 
-31.9031 -21.7292 12.5527 
-31.9031 -20.3912 28.0968 
-31.9031 -18.2096 16.9486 
-31.9031 -19.9448 14.4588 
-31.9031 -23.4879 14.6167 
-31.9031 -28.2682 23.979 
-31.9031 -20.1461 16.882 
-31.9031 -20.6442 13.8339 
-31.9031 -27.3063 28.7332 
-31.9031 -23.4542 7.69099 
-31.9031 -13.5835 26.5206 
-31.9031 -16.5906 20.732 
-31.9031 -28.3082 7.22491 
-31.9031 -25.5624 25.4915 
-31.9031 -10.457 27.8229 
-31.9031 -18.669 15.1622 
-31.9031 -22.9653 28.6477 
-31.9031 -26.4634 12.1438 
-31.9031 -27.2631 24.5304 
-31.9031 -25.2043 23.3859 
-31.9031 -24.6125 22.7191 
-31.9031 -16.5654 19.182 
-31.9031 -25.6219 15.2666 
-31.9031 -27.6128 14.303 
-31.9031 -20.749 24.6803 
-31.9031 -21.6925 16.2307 
-31.9031 -15.8291 24.2355 
-31.9031 -23.8136 14.1321 
-31.9031 -22.6282 28.0693 
-31.9031 -25.6405 13.2688 
-31.9031 -21.1475 18.4289 
-31.9031 -27.7101 26.5701 
-31.9031 -24.4818 12.2961 
-31.9031 -24.4528 18.9368 
-31.9031 -26.6387 21.4721 
-31.9031 -15.7729 23.3257 
-31.9031 -14.8186 21.6823 
-31.9031 -18.2729 17.413 
-31.9031 -18.8974 15.1346 
-31.9031 -22.8902 12.5124 
-31.9031 -21.249 20.6641 
-31.9031 -22.6105 21.0026 
-31.9031 -27.5266 28.971 
-31.9031 -23.1845 13.2357 
-31.9031 -18.8901 19.968 
-31.9031 -16.5576 25.881 
-31.9031 -27.2273 13.7603 
-31.9031 -19.1471 21.053 
-31.9031 -24.9506 23.5927 
-31.9031 -21.1618 26.9773 
-31.9031 -17.6604 21.7118 
-31.9031 -11.9637 25.2158 
-31.9031 -18.6264 29.6886 
-31.9031 -20.8472 25.5887 
-31.9031 -23.4204 28.3199 
-31.9031 -25.944 17.0344 
-31.9031 -25.4397 11.1958 
-31.9031 -22.7265 22.032 
-31.9031 -20.1553 19.6653 
-31.9031 -25.4701 18.9547 
-31.9031 -24.6914 17.8782 
-31.9031 -21.3272 22.3294 
-31.9031 -26.4928 5.40486 
-31.9031 -17.9168 17.062 
-31.9031 -15.1556 28.2705 
-31.9031 -10.5472 29.0047 
-31.9031 -24.9232 18.4418 
-31.9031 -23.5357 10.2514 
-31.9031 -22.5029 9.70281 
-31.9031 -25.0021 12.4283 
-31.9031 -23.3949 21.7574 
-31.9031 -22.8275 16.8002 
-31.9031 -23.005 17.7348 
-31.9031 -16.5142 28.1612 
-31.9031 -25.1042 25.2758 
-31.9031 -23.8684 19.3714 
-31.9031 -17.7963 21.6984 
-31.9031 -22.8706 25.3049 
-31.9031 -16.0224 26.554 
-31.9031 -27.4356 12.8192 
-31.9031 -11.3608 27.554 
-31.9031 -19.3848 22.2338 
-31.9031 -17.2715 24.2262 
-31.9031 -11.6107 28.6603 
-31.9031 -16.8082 20.7248 
-31.9031 -13.0791 29.7531 
-31.9031 -24.1948 18.9587 
-31.9031 -24.4528 14.438 
-31.9031 -23.987 24.3191 
-31.9031 -27.8495 3.22496 
-31.9031 -12.4966 26.1119 
-31.9031 -16.9349 27.6449 
-31.9031 -24.637 15.649 
-31.9031 -25.3532 21.7419 
-31.9031 -20.5256 26.9244 
-31.9031 -20.7568 12.8038 
-31.9031 -16.4759 23.5005 
-31.9031 -23.4534 22.6952 
-31.9031 -11.7804 26.0579 
-31.9031 -15.0499 24.5454 
-31.9031 -15.9022 20.3156 
-31.9031 -25.3808 24.5452 
-31.9031 -24.2557 11.9087 
-31.9031 -27.1502 18.5586 
-31.9031 -26.8732 26.0719 
-31.9031 -18.8385 29.1983 
-31.9031 -25.1327 20.7636 
-31.9031 -19.5181 29.7735 
-31.9031 -21.5632 10.6966 
-31.9031 -12.1759 24.7674 
-31.9031 -23.5104 25.6324 
-31.9031 -21.76 10.9684 
-31.9031 -27.4865 8.56429 
-31.9031 -23.3923 9.24828 
-31.9031 -22.4911 16.6124 
-31.9031 -19.6835 26.3231 
-31.9031 -20.3504 19.0683 
-31.9031 -12.0032 28.5764 
-31.9031 -11.8864 26.376 
-31.9031 -19.1005 26.3847 
-31.9031 -24.15 9.60537 
-31.9031 -17.7265 21.5792 
-31.9031 -22.2829 28.8695 
-31.9031 -11.6929 27.248 
-31.9031 -25.6907 17.7454 
-31.9031 -18.6487 16.8547 
-31.9031 -24.5306 21.2774 
-31.9031 -21.0291 15.0195 
-31.9031 -23.4977 10.7778 
-31.9031 -15.1855 25.5426 
-31.9031 -23.3711 15.5664 
-31.9031 -13.8959 27.0029 
-31.9031 -13.4905 29.9045 
-31.9031 -19.2441 24.7946 
-31.9031 -16.6733 21.6358 
-31.9031 -24.6314 22.1087 
-31.9031 -26.3468 26.7843 
-31.9031 -25.3681 12.1586 
-31.9031 -26.5054 21.1453 
-31.9031 -16.7789 29.1284 
-31.9031 -21.7725 26.039 
-31.9031 -20.5446 12.4208 
-31.9031 -26.5204 14.3495 
-31.9031 -12.553 25.3189 
-31.9031 -18.5624 23.4537 
-31.9031 -20.1159 23.2515 
-31.9031 -22.0192 24.1015 
-31.9031 -24.1813 9.82685 
-31.9031 -27.0507 8.86371 
-31.9031 -26.5296 15.5365 
-31.9031 -20.1989 20.5647 
-31.9031 -24.3313 24.9509 
-31.9031 -20.0701 23.1463 
-31.9031 -22.5964 17.6128 
-31.9031 -24.7472 9.68706 
-31.9031 -20.4726 21.9962 
-31.9031 -13.6759 23.9106 
-31.9031 -22.3991 11.7846 
-31.9031 -26.6624 17.1561 
-31.9031 -27.8022 6.28349 
-31.9031 -12.4281 28.4397 
-31.9031 -22.6974 29.236 
-31.9031 -14.391 24.3302 
-31.9031 -25.4708 29.4262 
-31.9031 -26.8 17.8121 
-31.9031 -25.8353 12.1819 
-31.9031 -19.2277 17.9947 
-31.9031 -25.2666 8.32146 
-31.9031 -26.3531 18.1204 
-31.9031 -22.0382 26.6303 
-31.9031 -14.6166 26.3428 
-31.9031 -19.5002 20.4545 
-31.9031 -24.7986 10.5156 
-31.9031 -22.7776 22.3495 
-31.9031 -27.2742 27.1742 
-31.9031 -25.4513 27.6058 
-31.9031 -19.4879 15.6663 
-31.9031 -20.2276 20.7566 
-31.9031 -25.8294 8.90591 
-31.9031 -17.2955 29.5416 
-31.9031 -22.1343 18.7503 
-31.9031 -25.0746 18.9641 
-31.9031 -18.8721 21.7196 
-31.9031 -21.3915 23.6501 
-31.9031 -18.5967 29.4261 
-31.9031 -22.6597 29.708 
-31.9031 -21.9063 12.6701 
-31.9031 -26.9146 5.68812 
-31.9031 -23.0812 8.67973 
-31.9031 -11.4449 28.7045 
-31.9031 -21.5737 12.8657 
-31.9031 -26.5738 27.7715 
-31.9031 -26.9597 20.56 
-31.9031 -22.1124 18.1403 
-31.9031 -21.7202 23.6778 
-31.9031 -23.9609 15.2807 
-31.9031 -27.3518 3.16748 
-31.9031 -23.9325 23.251 
-31.9031 -16.8876 23.0075 
-31.9031 -18.369 25.4419 
-31.9031 -28.3951 17.7361 
-31.9031 -24.0287 22.3287 
-31.9031 -19.7808 18.1113 
-31.9031 -17.1608 26.1742 
-31.9031 -20.9722 22.2234 
-31.9031 -21.0941 16.0523 
-31.9031 -28.0146 14.7768 
-31.9031 -15.531 23.3657 
-31.9031 -26.5612 20.9897 
-31.9031 -23.7435 9.92003 
-31.9031 -28.4017 26.4534 
-31.9031 -24.2614 9.68338 
-31.9031 -25.7371 21.334 
-31.9031 -19.4734 25.9522 
-31.9031 -8.87407 29.5044 
-31.9031 -15.209 28.2668 
-31.9031 -22.1186 19.0359 
-31.9031 -24.9487 18.9546 
-31.9031 -26.9135 29.5693 
-31.9031 -19.0295 27.0254 
-31.9031 -25.5499 8.84787 
-31.9031 -24.4145 21.6769 
-31.9031 -21.1315 11.019 
-31.9031 -24.0747 14.6524 
-31.9031 -10.9465 26.9166 
-31.9031 -26.9081 2.92617 
-31.9031 -27.7517 14.2218 
-31.9031 -22.135 22.2855 
-31.9031 -24.0227 16.4785 
-31.9031 -24.633 23.8142 
-31.9031 -27.4186 8.64767 
-31.9031 -19.8841 25.9781 
-31.9031 -22.3783 15.3909 
-31.9031 -27.9738 4.57839 
-31.9031 -26.5043 23.8888 
-31.9031 -24.5532 14.0276 
-31.9031 -26.7722 23.8641 
-31.9031 -23.4816 21.3759 
-31.9031 -20.879 21.5229 
-31.9031 -22.4078 14.9823 
-31.9031 -15.2996 27.9627 
-31.9031 -19.904 25.9138 
-31.9031 -13.0176 27.3495 
-31.9031 -21.4526 28.292 
-31.9031 -11.6877 28.241 
-31.9031 -26.8185 19.0555 
-31.9031 -10.8418 26.5029 
-31.9031 -19.1559 19.4334 
-31.9031 -25.8418 19.2845 
-31.9031 -26.4555 28.7579 
-31.9031 -15.0948 20.5308 
-31.9031 -22.6071 21.6119 
-31.9031 -19.1471 29.4523 
-31.9031 -27.3422 21.0539 
-31.9031 -16.6945 17.6479 
-31.9031 -23.3337 24.2764 
-31.9031 -14.673 23.8158 
-31.9031 -23.6378 15.5342 
-31.9031 -22.5164 16.0114 
-31.9031 -26.5745 5.34922 
-31.9031 -27.1252 7.10083 
-31.9031 -10.8507 27.5996 
-31.9031 -21.3712 28.6209 
-31.9031 -23.5527 23.9445 
-31.9031 -21.358 22.8982 
-31.9031 -17.4834 19.0929 
-31.9031 -24.0065 14.2052 
-31.9031 -28.2182 16.4319 
-31.9031 -27.5097 19.4397 
-31.9031 -27.1472 28.8072 
-31.9031 -26.2991 11.2476 
-31.9031 -13.6724 26.2653 
-31.9031 -14.234 26.2168 
-31.9031 -25.8629 4.41234 
-31.9031 -28.0433 2.94149 
-31.9031 -27.9099 21.8254 
-31.9031 -18.6349 20.4201 
-31.9031 -25.0503 25.1136 
-31.9031 -24.7535 22.5457 
-31.9031 -28.3388 15.3974 
-31.9031 -26.5075 10.7905 
-31.9031 -19.1214 18.0012 
-31.9031 -27.5401 21.3842 
-31.9031 -9.51657 29.7153 
-31.9031 -19.7366 15.4821 
-31.9031 -23.3421 12.2041 
-31.9031 -19.828 25.8491 
-31.9031 -19.2357 25.0526 
-31.9031 -28.297 3.97114 
-31.9031 -18.1416 17.6934 
-31.9031 -24.7077 5.60166 
-31.9031 -24.7413 19.5951 
-31.9031 -21.0198 26.4733 
-31.9031 -23.2289 27.8182 
-31.9031 -15.0009 23.9571 
-31.9031 -26.1083 20.9084 
-31.9031 -19.1824 15.434 
-31.9031 -28.3076 15.9074 
-31.9031 -20.9592 29.8276 
-31.9031 -18.577 26.1117 
-31.9031 -15.2434 24.7032 
-31.9031 -26.347 8.62976 
-31.9031 -20.3873 24.7017 
-31.9031 -22.635 19.3129 
-31.9031 -16.684 27.951 
-31.9031 -20.5822 29.8453 
-31.9031 -24.0151 12.9099 
-31.9031 -20.8093 27.0069 
-31.9031 -27.7882 21.9547 
-31.9031 -13.125 23.2042 
-31.9031 -18.2101 23.9229 
-31.9031 -22.5114 20.7779 
-31.9031 -26.4735 16.3112 
-31.9031 -24.499 29.2825 
-31.9031 -27.2857 1.88051 
-31.9031 -15.3847 28.3191 
-31.9031 -26.9892 19.8171 
-31.9031 -16.5926 27.8683 
-31.9031 -27.3755 22.2076 
-31.9031 -11.6313 27.4734 
-31.9031 -26.7335 10.0211 
-31.9031 -27.1029 15.5027 
-31.9031 -17.9572 25.0125 
-31.9031 -19.9938 26.5799 
-31.9031 -22.5315 26.9592 
-31.9031 -19.6327 26.2929 
-31.9031 -18.9958 14.3027 
-31.9031 -18.1386 22.6203 
-31.9031 -22.9258 29.6087 
-31.9031 -16.5784 25.7769 
-31.9031 -18.0447 19.8187 
-31.9031 -21.7156 27.4536 
-31.9031 -20.6661 25.4584 
-31.9031 -22.0964 10.4231 
-31.9031 -24.9153 11.23 
-31.9031 -16.8079 20.3967 
-31.9031 -16.6836 22.6099 
-31.9031 -25.6022 28.9153 
-31.9031 -26.427 24.4836 
-31.9031 -19.2875 29.7152 
-31.9031 -25.7394 28.0752 
-31.9031 -24.3884 27.8125 
-31.9031 -25.8201 20.7346 
-31.9031 -16.0859 23.8592 
-31.9031 -26.553 6.23076 
-31.9031 -11.2576 29.308 
-31.9031 -25.0398 12.9676 
-31.9031 -10.8651 26.7686 
-31.9031 -26.7497 29.0073 
-31.9031 -18.0256 20.8496 
-31.9031 -15.2289 23.1381 
-31.9031 -26.5861 28.2847 
-31.9031 -28.4015 22.8979 
-31.9031 -21.6498 18.6259 
-31.9031 -21.2204 27.2518 
-31.9031 -9.77157 28.3618 
-31.9031 -17.7219 27.981 
-31.9031 -14.7248 24.6038 
-31.9031 -23.2412 22.6059 
-31.9031 -16.4111 27.5941 
-31.9031 -28.1159 26.7327 
-31.9031 -27.719 3.49103 
-31.9031 -14.4543 22.8627 
-31.9031 -24.6473 25.2627 
-31.9031 -28.1454 13.1174 
-31.9031 -14.8127 21.3895 
-31.9031 -12.2444 24.6301 
-31.9031 -26.1143 24.0992 
-31.9031 -26.5233 3.81544 
-31.9031 -25.5072 14.5572 
-31.9031 -19.5108 29.8517 
-31.9031 -27.0521 9.08677 
-31.9031 -22.6189 14.1697 
-31.9031 -26.8515 4.25533 
-31.9031 -25.1177 10.3681 
-31.9031 -22.0443 22.3384 
-31.9031 -26.4699 3.26996 
-31.9031 -12.0106 27.4728 
-31.9031 -24.4096 21.1694 
-31.9031 -26.137 26.6349 
-31.9031 -28.2284 15.9459 
-31.9031 -27.695 10.7084 
-31.9031 -27.8182 27.967 
-31.9031 -17.5062 25.6294 
-31.9031 -20.7149 21.2016 
-31.9031 -16.7962 17.6988 
-31.9031 -14.1467 25.7979 
-31.9031 -13.1766 25.3791 
-31.9031 -24.8142 23.4704 
-31.9031 -21.6568 11.4694 
-31.9031 -18.9932 16.4375 
-31.9031 -24.595 28.7466 
-31.9031 -27.6179 10.7918 
-31.9031 -22.0111 13.2163 
-31.9031 -17.3649 27.1204 
-31.9031 -14.2944 22.4785 
-31.9031 -23.5461 16.0979 
-31.9031 -24.9418 29.3809 
-31.9031 -28.3997 9.14804 
-31.9031 -11.7266 25.659 
-31.9031 -27.8811 23.7522 
-31.9031 -25.7184 23.5147 
-31.9031 -20.2996 28.3779 
-31.9031 -22.9264 11.1198 
-31.9031 -25.4282 26.0109 
-31.9031 -24.7466 24.9049 
-31.9031 -24.8771 24.1218 
-31.9031 -24.5691 14.4497 
-31.9031 -25.3804 17.7174 
-31.9031 -22.8868 20.3047 
-31.9031 -25.9178 20.4696 
-31.9031 -17.9118 24.0431 
-31.9031 -23.431 16.6147 
-31.9031 -14.0424 23.6317 
-31.9031 -24.4877 7.40566 
-31.9031 -27.9139 24.6612 
-31.9031 -11.278 25.7277 
-31.9031 -24.3806 14.0213 
-31.9031 -18.6454 17.2875 
-31.9031 -26.1804 25.903 
-31.9031 -19.4024 29.8663 
-31.9031 -25.9422 10.0298 
-31.9031 -14.5498 27.4882 
-31.9031 -25.2196 14.6547 
-31.9031 -13.9995 24.1777 
-31.9031 -24.5726 15.8213 
-31.9031 -19.4243 27.5184 
-31.9031 -26.8558 24.58 
-31.9031 -25.5889 27.2708 
-31.9031 -21.558 13.8416 
-31.9031 -28.2858 21.6593 
-31.9031 -12.7112 26.0773 
-31.9031 -25.9302 8.56085 
-31.9031 -25.3928 22.4802 
-31.9031 -26.8656 16.6055 
-31.9031 -24.7957 26.928 
-31.9031 -17.2481 21.7381 
-31.9031 -24.1868 17.9525 
-31.9031 -27.2507 2.16003 
-31.9031 -28.2699 17.9182 
-31.9031 -12.518 24.1712 
-31.9031 -28.0816 22.4748 
-31.9031 -26.5541 14.6784 
-31.9031 -24.541 14.8972 
-31.9031 -25.4808 10.1148 
-31.9031 -13.8862 23.2378 
-31.9031 -9.97416 28.7411 
-31.9031 -22.1771 28.0149 
-31.9031 -26.5554 17.9357 
-31.9031 -11.7437 26.4573 
-31.9031 -12.4193 24.3177 
-31.9031 -14.9692 28.5592 
-31.9031 -28.2709 9.29849 
-31.9031 -20.1935 16.7736 
-31.9031 -26.0415 18.2803 
-31.9031 -27.9327 12.7505 
-31.9031 -14.3273 27.0259 
-31.9031 -24.9411 5.92358 
-31.9031 -23.5008 25.1308 
-31.9031 -17.5053 19.5834 
-31.9031 -27.5736 1.66587 
-31.9031 -27.1866 3.41469 
-31.9031 -24.8194 27.4934 
-31.9031 -27.9908 17.2608 
-31.9031 -23.7829 25.8465 
-31.9031 -22.317 24.3361 
-31.9031 -15.8691 28.296 
-31.9031 -27.4894 3.69754 
-31.9031 -24.455 22.1202 
-31.9031 -23.7262 25.7452 
-31.9031 -16.6457 22.6804 
-31.9031 -23.1268 9.13477 
-31.9031 -26.6503 13.3391 
-31.9031 -24.8036 5.61507 
-31.9031 -15.4595 21.3315 
-31.9031 -28.1374 25.0804 
-31.9031 -16.6438 24.7247 
-31.9031 -14.8322 22.2252 
-31.9031 -23.0971 15.185 
-31.9031 -21.9267 23.4278 
-31.9031 -10.048 27.9061 
-31.9031 -16.6081 28.2871 
-31.9031 -14.9255 29.9426 
-31.9031 -28.0631 26.71 
-31.9031 -21.1824 16.9485 
-31.9031 -26.4963 13.5292 
-31.9031 -27.8145 16.8866 
-31.9031 -23.7578 7.6105 
-31.9031 -26.6345 5.15711 
-31.9031 -27.373 22.5149 
-31.9031 -27.0271 21.3508 
-31.9031 -22.9361 15.2804 
-31.9031 -21.8036 13.7801 
-31.9031 -10.448 26.9862 
-31.9031 -21.6505 17.7557 
-31.9031 -16.5333 28.6683 
-31.9031 -25.7521 9.13292 
-31.9031 -21.6659 15.3571 
-31.9031 -18.8482 20.4701 
-31.9031 -16.1098 24.3746 
-31.9031 -17.5498 24.5451 
-31.9031 -11.5961 28.4698 
-31.9031 -20.8144 29.2817 
-31.9031 -24.918 2.0776 
-31.9031 -16.9867 1.6292 
-31.9031 -14.0845 19.4711 
-31.9031 -10.2447 22.1309 
-31.9031 -14.6284 1.81617 
-31.9031 -11.9035 0.772856 
-31.9031 -12.4636 18.7586 
-31.9031 -21.8946 3.44443 
-31.9031 -9.36429 9.23128 
-31.9031 -14.2776 3.23473 
-31.9031 -15.4406 16.7991 
-31.9031 -17.7822 12.0436 
-31.9031 -21.9421 4.4886 
-31.9031 -9.30416 28.1368 
-31.9031 -15.8064 11.1655 
-31.9031 -15.1236 7.95547 
-31.9031 -8.69907 17.2663 
-31.9031 -10.8741 4.83917 
-31.9031 -16.0896 4.8426 
-31.9031 -11.0194 6.33177 
-31.9031 -24.6675 5.08599 
-31.9031 -17.5606 4.1776 
-31.9031 -11.0496 23.1779 
-31.9031 -19.8779 7.46342 
-31.9031 -16.7677 5.67748 
-31.9031 -11.0191 22.8963 
-31.9031 -11.4624 13.5562 
-31.9031 -22.0994 6.67381 
-31.9031 -26.3036 3.11043 
-31.9031 -13.8763 10.5277 
-31.9031 -26.3766 2.61687 
-31.9031 -11.6267 6.4227 
-31.9031 -24.1555 1.03662 
-31.9031 -10.2011 2.49172 
-31.9031 -19.8419 7.31836 
-31.9031 -16.1186 10.7023 
-31.9031 -25.2932 1.19919 
-31.9031 -9.05658 26.6347 
-31.9031 -9.96805 3.77395 
-31.9031 -12.9687 18.6787 
-31.9031 -15.7582 1.05643 
-31.9031 -20.1158 0.331218 
-31.9031 -14.7251 5.93444 
-31.9031 -11.737 15.5799 
-31.9031 -21.9773 6.06528 
-31.9031 -15.308 0.670866 
-31.9031 -9.98344 14.9655 
-31.9031 -11.2272 24.2542 
-31.9031 -18.352 8.62605 
-31.9031 -25.0176 1.85962 
-31.9031 -12.2365 11.1259 
-31.9031 -19.0191 9.36622 
-31.9031 -12.8594 13.17 
-31.9031 -14.0981 6.99084 
-31.9031 -17.542 7.17256 
-31.9031 -15.3542 11.8282 
-31.9031 -12.6443 6.0951 
-31.9031 -12.1458 23.9294 
-31.9031 -17.2835 3.36851 
-31.9031 -10.3753 11.0778 
-31.9031 -15.3462 18.9858 
-31.9031 -10.2469 0.119146 
-31.9031 -17.1219 1.42455 
-31.9031 -9.3881 1.95662 
-31.9031 -15.7153 17.15 
-31.9031 -9.41523 17.0892 
-31.9031 -16.8393 4.89134 
-31.9031 -20.9884 9.69876 
-31.9031 -9.55465 14.7508 
-31.9031 -13.6507 21.3766 
-31.9031 -19.1488 6.23753 
-31.9031 -8.42386 1.21083 
-31.9031 -20.3064 6.80164 
-31.9031 -23.1939 6.97386 
-31.9031 -10.5843 11.1595 
-31.9031 -22.092 9.02268 
-31.9031 -8.49277 21.8553 
-31.9031 -8.49882 19.2972 
-31.9031 -15.8616 10.7261 
-31.9031 -11.4524 22.3824 
-31.9031 -17.9435 14.6079 
-31.9031 -9.06233 25.1404 
-31.9031 -15.6749 4.55666 
-31.9031 -17.1859 9.67946 
-31.9031 -22.0847 5.65005 
-31.9031 -17.8217 15.405 
-31.9031 -10.6942 23.4705 
-31.9031 -24.4883 3.93681 
-31.9031 -18.5986 1.75568 
-31.9031 -17.7005 13.1267 
-31.9031 -10.7965 15.9568 
-31.9031 -9.95876 7.51667 
-31.9031 -12.7296 2.51562 
-31.9031 -8.87608 13.4583 
-31.9031 -13.4292 5.97903 
-31.9031 -21.0565 8.06036 
-31.9031 -20.9864 5.03623 
-31.9031 -15.3733 10.775 
-31.9031 -11.6354 8.38971 
-31.9031 -9.81038 16.3245 
-31.9031 -10.171 3.84153 
-31.9031 -10.6305 3.90022 
-31.9031 -8.50014 13.1236 
-31.9031 -21.3689 6.57645 
-31.9031 -12.3396 10.6625 
-31.9031 -15.7999 5.41378 
-31.9031 -20.0751 2.60351 
-31.9031 -20.3694 10.848 
-31.9031 -10.8761 6.33978 
-31.9031 -21.9669 7.00399 
-31.9031 -20.5963 8.50392 
-31.9031 -16.679 3.04554 
-31.9031 -13.9087 3.20718 
-31.9031 -14.302 15.1634 
-31.9031 -11.3949 0.352249 
-31.9031 -9.70419 9.19482 
-31.9031 -16.0266 18.1009 
-31.9031 -12.5264 8.15997 
-31.9031 -9.06238 25.0825 
-31.9031 -21.531 9.10692 
-31.9031 -11.6943 24.557 
-31.9031 -11.8522 1.03525 
-31.9031 -20.5189 9.14803 
-31.9031 -22.0539 1.94653 
-31.9031 -19.7221 9.25223 
-31.9031 -20.1698 7.61127 
-31.9031 -18.8367 9.05761 
-31.9031 -13.4135 21.4273 
-31.9031 -19.3163 9.78852 
-31.9031 -9.57006 2.31582 
-31.9031 -17.1272 10.7693 
-31.9031 -25.061 4.23395 
-31.9031 -8.97561 5.02247 
-31.9031 -14.2162 20.2818 
-31.9031 -14.5961 8.77484 
-31.9031 -19.3851 7.41267 
-31.9031 -23.4715 5.76076 
-31.9031 -16.2988 10.0492 
-31.9031 -15.7357 3.72524 
-31.9031 -18.5419 2.82505 
-31.9031 -8.46774 11.3632 
-31.9031 -10.5319 9.44722 
-31.9031 -19.2058 7.32431 
-31.9031 -15.0983 14.3279 
-31.9031 -16.2866 6.95566 
-31.9031 -11.6596 2.03478 
-31.9031 -11.6235 8.80342 
-31.9031 -11.4407 21.1081 
-31.9031 -17.0527 1.96436 
-31.9031 -14.1585 10.4763 
-31.9031 -13.8561 13.6931 
-31.9031 -24.4088 0.790283 
-31.9031 -9.34211 15.8318 
-31.9031 -18.1828 2.27753 
-31.9031 -12.2523 21.1895 
-31.9031 -9.09679 15.1773 
-31.9031 -11.8446 2.40726 
-31.9031 -12.634 3.04929 
-31.9031 -21.5614 0.285036 
-31.9031 -16.9414 0.0638081 
-31.9031 -26.3232 0.817397 
-31.9031 -9.25061 17.6601 
