ply
format ascii 1.0
comment Created by CloudCompare v2.11.3 (Anoia)
comment Created 7/26/25 7:51 PM
obj_info Generated by CloudCompare!
element vertex 1704
property double x
property double y
property double z
end_header
20.0062 0.77 7.85892 
20.0062 0.408399 16.5107 
20.0062 6.4808 16.3362 
20.0062 3.8737 13.1243 
20.0062 10.6556 7.90525 
20.0062 2.5547 15.5424 
20.0062 2.1579 14.4038 
20.0062 1.2013 27.8388 
20.0062 7.8641 10.5636 
20.0062 8.3802 1.17035 
20.0062 12.3792 7.40491 
20.0062 12.8984 7.29612 
20.0062 1.0659 11.9542 
20.0062 8.8581 6.40796 
20.0062 2.7052 14.2676 
20.0062 13.5654 6.8348 
20.0062 9.0675 3.22587 
20.0062 1.1397 5.7946 
20.0062 2.594 25.0049 
20.0062 6.8168 13.5752 
20.0062 8.9081 5.60431 
20.0062 5.2034 7.09774 
20.0062 3.3212 9.98768 
20.0062 0.699699 4.14518 
20.0062 1.8604 23.9214 
20.0062 5.5225 20.2854 
20.0062 5.9644 17.4029 
20.0062 4.7547 16.8417 
20.0062 17.3601 2.39711 
20.0062 1.4633 18.1531 
20.0062 1.1045 23.1962 
20.0062 15.172 0.636558 
20.0062 7.0838 10.927 
20.0062 7.7399 5.83194 
20.0062 4.458 16.9349 
20.0062 16.229 4.94336 
20.0062 3.763 17.592 
20.0062 7.326 2.08724 
20.0062 0.817301 0.448332 
20.0062 6.4453 13.7525 
20.0062 2.9242 18.3991 
20.0062 16.6808 4.72911 
20.0062 12.6614 3.1108 
20.0062 1.8751 12.9357 
20.0062 2.9815 19.0613 
20.0062 11.6542 0.0658198 
20.0062 5.3512 20.6836 
20.0062 7.1407 10.9267 
20.0062 0.1364 20.6086 
20.0062 5.4233 21.3313 
20.0062 6.4376 11.7053 
20.0062 11.0105 12.1339 
20.0062 6.8541 17.0759 
20.0062 3.5054 5.71792 
20.0062 4.9358 21.7697 
20.0062 9.1297 14.4684 
20.0062 4.764 21.1719 
20.0062 4.7053 2.17573 
20.0062 10.0495 12.4638 
20.0062 8.5134 15.7091 
20.0062 11.4412 1.80005 
20.0062 3.0719 20.1117 
20.0062 9.6275 2.63839 
20.0062 1.7513 8.91758 
20.0062 2.8148 20.2048 
20.0062 1.2751 3.23191 
20.0062 3.7604 8.73729 
20.0062 14.0278 5.36247 
20.0062 4.6315 16.209 
20.0062 6.1616 18.4123 
20.0062 14.4293 7.02158 
20.0062 16.5552 1.39534 
20.0062 9.7394 5.60638 
20.0062 4.8973 1.95242 
20.0062 3.9171 5.44202 
20.0062 1.8927 16.5044 
20.0062 11.7034 8.52677 
20.0062 10.7178 9.67526 
20.0062 1.9104 9.45942 
20.0062 4.9439 0.564821 
20.0062 7.734 11.2649 
20.0062 7.5352 14.5043 
20.0062 7.3603 8.27892 
20.0062 4.5086 13.0027 
20.0062 4.6899 11.9157 
20.0062 4.9467 19.0268 
20.0062 1.2846 24.2161 
20.0062 3.0583 21.1927 
20.0062 10.2625 4.53201 
20.0062 10.872 11.5309 
20.0062 2.6605 17.3238 
20.0062 2.2312 21.2694 
20.0062 1.9947 7.6667 
20.0062 5.6917 13.7609 
20.0062 4.4195 15.9951 
20.0062 4.0914 12.947 
20.0062 10.6994 1.66864 
20.0062 12.719 1.62939 
20.0062 4.4381 10.3374 
20.0062 8.2823 13.9306 
20.0062 11.3962 8.208 
20.0062 8.5958 16.3296 
20.0062 4.9951 9.87686 
20.0062 1.5935 16.247 
20.0062 13.3995 5.98368 
20.0062 1.9066 14.2327 
20.0062 0.3878 21.7056 
20.0062 18.8584 0.758346 
20.0062 3.6342 6.95032 
20.0062 4.7343 12.7058 
20.0062 5.3778 19.9895 
20.0062 10.0697 11.8411 
20.0062 4.8621 5.90349 
20.0062 7.311 14.5089 
20.0062 3.8923 4.23266 
20.0062 0.7687 5.99636 
20.0062 0.9389 18.6062 
20.0062 3.017 10.58 
20.0062 3.9996 18.2162 
20.0062 2.5159 14.4275 
20.0062 4.2728 0.648323 
20.0062 4.6409 0.132419 
20.0062 14.1288 3.38893 
20.0062 4.0076 23.5593 
20.0062 12.573 2.18752 
20.0062 5.8577 20.0868 
20.0062 6.2355 20.0681 
20.0062 3.2504 9.20033 
20.0062 7.7796 12.1583 
20.0062 0.501699 10.8552 
20.0062 0.866899 9.2953 
20.0062 12.2887 4.26478 
20.0062 1.5831 11.8772 
20.0062 6.5875 10.4717 
20.0062 16.4745 3.70948 
20.0062 5.8528 15.5758 
20.0062 9.6647 13.4545 
20.0062 2.0951 1.91489 
20.0062 14.1512 8.26518 
20.0062 15.0003 6.84066 
20.0062 9.0536 5.48612 
20.0062 9.3028 2.59592 
20.0062 7.1808 14.8431 
20.0062 3.8793 22.7585 
20.0062 8.7646 16.8048 
20.0062 0.294701 2.18811 
20.0062 5.5269 5.62486 
20.0062 1.6946 1.8515 
20.0062 0.0643004 5.70866 
20.0062 7.3758 8.10378 
20.0062 1.5346 6.53487 
20.0062 0.4648 15.9876 
20.0062 5.6943 6.89844 
20.0062 5.4926 4.75092 
20.0062 2.3393 20.2033 
20.0062 10.5403 12.4543 
20.0062 13.0914 4.18852 
20.0062 7.9044 9.83894 
20.0062 2.8862 6.24763 
20.0062 6.9141 5.27638 
20.0062 0.8358 27.2508 
20.0062 11.4693 10.833 
20.0062 3.2823 22.3788 
20.0062 1.8027 7.77488 
20.0062 0.671301 14.9524 
20.0062 3.9888 8.91814 
20.0062 9.8394 11.7128 
20.0062 5.2728 7.48406 
20.0062 4.1698 16.7314 
20.0062 4.2247 21.6512 
20.0062 14.2676 1.50058 
20.0062 10.4764 3.77357 
20.0062 5.7523 8.2779 
20.0062 0.2467 13.2582 
20.0062 1.3236 8.84874 
20.0062 11.3805 4.00357 
20.0062 16.5215 1.27671 
20.0062 15.0149 2.05771 
20.0062 10.4234 6.04023 
20.0062 13.3259 9.30449 
20.0062 2.5376 8.36233 
20.0062 16.002 0.455486 
20.0062 4.2605 13.8788 
20.0062 5.2131 16.9587 
20.0062 0.952801 19.0488 
20.0062 1.09 1.65187 
20.0062 0.8796 1.84908 
20.0062 8.3815 11.8315 
20.0062 7.7881 10.8696 
20.0062 3.2868 13.0012 
20.0062 13.3115 3.16542 
20.0062 7.6807 0.772766 
20.0062 8.1741 5.62383 
20.0062 7.7692 2.33567 
20.0062 6.6904 6.12669 
20.0062 9.6008 7.87772 
20.0062 4.4446 10.7587 
20.0062 4.4277 18.001 
20.0062 4.3675 15.8878 
20.0062 1.8196 17.1586 
20.0062 2.3294 12.4644 
20.0062 10.4359 4.65023 
20.0062 5.401 19.724 
20.0062 12.5923 5.48843 
20.0062 7.5426 5.55465 
20.0062 1.3151 9.41421 
20.0062 12.297 0.717664 
20.0062 9.7082 11.7725 
20.0062 2.5876 11.924 
20.0062 5.3384 20.7694 
20.0062 13.2633 2.24715 
20.0062 1.7515 12.9129 
20.0062 11.1284 6.6919 
20.0062 2.3094 21.5628 
20.0062 2.0907 14.6088 
20.0062 4.988 0.616587 
20.0062 1.0557 10.8656 
20.0062 5.6335 2.3726 
20.0062 3.1579 18.7281 
20.0062 3.7591 17.0784 
20.0062 0.680799 23.829 
20.0062 2.2358 8.78057 
20.0062 5.5799 14.3932 
20.0062 2.7198 25.6066 
20.0062 4.7286 7.18357 
20.0062 1.5677 17.2704 
20.0062 6.8458 3.45502 
20.0062 7.1247 8.59663 
20.0062 5.8519 2.22776 
20.0062 0.832201 8.91144 
20.0062 5.8379 7.15961 
20.0062 8.458 0.98953 
20.0062 8.804 5.07922 
20.0062 8.9488 7.50135 
20.0062 7.9918 5.26764 
20.0062 5.9018 0.357973 
20.0062 2.2754 16.0862 
20.0062 14.8021 0.381484 
20.0062 7.7598 4.88942 
20.0062 5.7523 12.7274 
20.0062 0.0680007 0.904525 
20.0062 6.3543 1.17881 
20.0062 1.2501 0.199837 
20.0062 4.9538 3.79457 
20.0062 11.0842 6.92978 
20.0062 3.7182 20.7513 
20.0062 3.0645 0.473048 
20.0062 0.658701 16.2665 
20.0062 14.2953 4.37106 
20.0062 6.4379 13.0964 
20.0062 2.2156 4.63022 
20.0062 9.3143 13.8358 
20.0062 0.104299 1.66973 
20.0062 6.9263 14.8814 
20.0062 2.1239 3.82815 
20.0062 0.839201 26.3804 
20.0062 13.7875 9.12545 
20.0062 10.4215 10.7489 
20.0062 3.2789 23.6499 
20.0062 9.8492 7.04608 
20.0062 3.9487 10.6172 
20.0062 9.4713 5.43432 
20.0062 12.855 0.229342 
20.0062 1.9617 25.6218 
20.0062 3.4492 10.951 
20.0062 7.9618 11.1632 
20.0062 13.7838 6.09634 
20.0062 8.0238 11.5126 
20.0062 10.0585 10.6318 
20.0062 0.0408992 6.07539 
20.0062 11.5065 5.45313 
20.0062 6.1753 20.1648 
20.0062 2.5366 25.2604 
20.0062 0.5063 14.9337 
20.0062 9.4485 2.05824 
20.0062 13.1051 3.7101 
20.0062 4.7572 20.4836 
20.0062 4.8044 0.586694 
20.0062 3.1594 24.7342 
20.0062 8.1373 6.95561 
20.0062 0.34 25.1494 
20.0062 1.0576 22.1025 
20.0062 4.8065 11.9226 
20.0062 11.7049 8.66129 
20.0062 6.0592 14.8866 
20.0062 2.3134 19.1358 
20.0062 7.9437 12.2867 
20.0062 13.125 4.12368 
20.0062 0.863899 21.6354 
20.0062 9.4973 12.5958 
20.0062 15.8204 4.45578 
20.0062 16.7254 4.19909 
20.0062 13.3049 7.15906 
20.0062 7.418 17.4823 
20.0062 1.5814 0.838704 
20.0062 2.8768 5.62952 
20.0062 6.2778 12.3141 
20.0062 14.1941 4.62552 
20.0062 0.8605 17.209 
20.0062 9.5388 6.29652 
20.0062 2.5651 22.2735 
20.0062 8.4859 1.07523 
20.0062 0.365801 16.9763 
20.0062 3.1436 9.22205 
20.0062 11.293 8.95132 
20.0062 7.2229 9.88332 
20.0062 8.006 17.371 
20.0062 10.3871 6.41579 
8.00321 -1.0376e-07 19.5142 
15.4731 -1.0376e-07 26.768 
19.1671 -1.0376e-07 6.32322 
18.0866 -1.0376e-07 15.2268 
17.884 -1.0376e-07 21.7307 
15.947 -1.0376e-07 19.2635 
17.9483 -1.0376e-07 23.7746 
6.54241 -1.0376e-07 28.7278 
19.507 -1.0376e-07 10.8262 
16.2369 -1.0376e-07 19.028 
8.37911 -1.0376e-07 20.5087 
17.6535 -1.0376e-07 23.1379 
19.0194 -1.0376e-07 4.26203 
17.1317 -1.0376e-07 23.7587 
19.9167 -1.0376e-07 1.66824 
9.15141 -1.0376e-07 24.9566 
16.0083 -1.0376e-07 6.83628 
13.4888 -1.0376e-07 26.3811 
5.46751 -1.0376e-07 26.6386 
9.71551 -1.0376e-07 15.6948 
13.7866 -1.0376e-07 10.6614 
5.34901 -1.0376e-07 25.5218 
13.6296 -1.0376e-07 15.455 
5.81751 -1.0376e-07 22.1814 
9.31821 -1.0376e-07 21.1589 
17.9564 -1.0376e-07 11.935 
12.8895 -1.0376e-07 26.7864 
7.13091 -1.0376e-07 24.5819 
16.8977 -1.0376e-07 16.2887 
8.61541 -1.0376e-07 25.2945 
8.02941 -1.0376e-07 26.2515 
4.50691 -1.0376e-07 27.738 
8.23911 -1.0376e-07 25.6093 
18.1926 -1.0376e-07 15.5427 
17.277 -1.0376e-07 25.1313 
1.13241 -1.0376e-07 29.5585 
14.6954 -1.0376e-07 24.7857 
8.40141 -1.0376e-07 26.5145 
18.2143 -1.0376e-07 11.7298 
16.3492 -1.0376e-07 23.7396 
11.8576 -1.0376e-07 15.7658 
18.1712 -1.0376e-07 19.2184 
12.01 -1.0376e-07 29.8379 
9.99151 -1.0376e-07 19.5706 
14.7804 -1.0376e-07 7.84864 
11.849 -1.0376e-07 19.6877 
14.375 -1.0376e-07 17.7761 
16.3833 -1.0376e-07 27.5824 
15.0139 -1.0376e-07 20.8031 
16.3968 -1.0376e-07 8.46193 
12.885 -1.0376e-07 15.316 
3.08651 -1.0376e-07 29.2324 
16.866 -1.0376e-07 24.4532 
13.107 -1.0376e-07 20.5605 
2.25691 -1.0376e-07 26.8249 
6.58941 -1.0376e-07 28.1431 
2.56001 -1.0376e-07 27.4561 
17.4137 -1.0376e-07 21.357 
13.0308 -1.0376e-07 24.4684 
12.017 -1.0376e-07 25.0459 
3.70951 -1.0376e-07 24.7819 
17.9368 -1.0376e-07 6.21832 
6.39361 -1.0376e-07 23.1535 
11.7164 -1.0376e-07 20.5445 
13.2353 -1.0376e-07 18.2632 
14.2928 -1.0376e-07 23.8931 
16.049 -1.0376e-07 21.0629 
11.5213 -1.0376e-07 28.4387 
13.7869 -1.0376e-07 26.5144 
5.32191 -1.0376e-07 27.7132 
16.4506 -1.0376e-07 12.1967 
18.3754 -1.0376e-07 10.4039 
3.77491 -1.0376e-07 29.0211 
19.4896 -1.0376e-07 8.38479 
13.6669 -1.0376e-07 14.7264 
16.4 -1.0376e-07 12.2146 
13.0123 -1.0376e-07 28.6588 
10.6452 -1.0376e-07 26.6793 
15.1797 -1.0376e-07 26.7317 
17.7926 -1.0376e-07 10.3348 
3.20631 -1.0376e-07 26.8501 
13.371 -1.0376e-07 20.7982 
10.2662 -1.0376e-07 26.8942 
7.55231 -1.0376e-07 22.0662 
11.4699 -1.0376e-07 16.6057 
13.3879 -1.0376e-07 17.0205 
17.104 -1.0376e-07 20.8929 
18.1097 -1.0376e-07 26.793 
7.97091 -1.0376e-07 18.6964 
17.2211 -1.0376e-07 28.8205 
13.891 -1.0376e-07 16.4108 
8.08011 -1.0376e-07 25.0938 
16.8624 -1.0376e-07 14.6488 
10.6868 -1.0376e-07 29.9006 
16.8376 -1.0376e-07 15.5413 
13.1836 -1.0376e-07 29.8482 
8.88061 -1.0376e-07 28.1485 
16.2842 -1.0376e-07 20.5028 
14.8394 -1.0376e-07 16.4155 
3.86071 -1.0376e-07 29.5437 
13.4581 -1.0376e-07 26.5694 
13.57 -1.0376e-07 27.4884 
14.3381 -1.0376e-07 15.9577 
11.1401 -1.0376e-07 19.4105 
15.2919 -1.0376e-07 7.24791 
3.60011 -1.0376e-07 25.1555 
16.2202 -1.0376e-07 25.5502 
18.9527 -1.0376e-07 23.6356 
15.4058 -1.0376e-07 15.676 
18.3132 -1.0376e-07 9.33777 
17.6229 -1.0376e-07 8.34925 
7.61791 -1.0376e-07 27.5699 
8.09611 -1.0376e-07 18.3749 
10.7672 -1.0376e-07 19.1067 
4.69891 -1.0376e-07 27.2343 
7.07861 -1.0376e-07 23.6383 
8.03201 -1.0376e-07 21.1777 
8.80991 -1.0376e-07 17.3884 
16.1141 -1.0376e-07 15.5201 
9.16261 -1.0376e-07 23.9661 
18.3471 -1.0376e-07 17.2399 
19.6938 -1.0376e-07 22.1389 
17.8205 -1.0376e-07 9.32952 
1.78181 -1.0376e-07 29.5683 
12.1885 -1.0376e-07 22.2071 
19.3327 -1.0376e-07 28.4328 
7.02181 -1.0376e-07 22.55 
9.91401 -1.0376e-07 20.5632 
12.6643 -1.0376e-07 29.7236 
18.4469 -1.0376e-07 8.62144 
14.9389 -1.0376e-07 25.2737 
5.80441 -1.0376e-07 28.9813 
12.9112 -1.0376e-07 23.3774 
19.8508 -1.0376e-07 23.9022 
18.7694 -1.0376e-07 18.1139 
17.4433 -1.0376e-07 16.3923 
19.9368 -1.0376e-07 27.0098 
13.0685 -1.0376e-07 24.7191 
5.88201 -1.0376e-07 26.7811 
9.84761 -1.0376e-07 25.7407 
14.0268 -1.0376e-07 14.1708 
18.6453 -1.0376e-07 8.87694 
8.33101 -1.0376e-07 20.033 
14.5386 -1.0376e-07 11.4425 
16.7549 -1.0376e-07 9.1172 
19.5138 -1.0376e-07 17.9313 
18.7113 -1.0376e-07 27.8494 
14.3241 -1.0376e-07 25.5264 
13.4169 -1.0376e-07 13.9557 
8.67691 -1.0376e-07 21.8254 
18.7157 -1.0376e-07 11.0611 
13.2261 -1.0376e-07 12.0887 
11.1663 -1.0376e-07 25.0506 
14.7533 -1.0376e-07 8.36811 
18.8907 -1.0376e-07 18.6234 
14.8068 -1.0376e-07 11.937 
13.5315 -1.0376e-07 14.0999 
6.32761 -1.0376e-07 21.7385 
18.3519 -1.0376e-07 14.3868 
19.3909 -1.0376e-07 17.2477 
19.2391 -1.0376e-07 5.99246 
12.9622 -1.0376e-07 19.4467 
18.9543 -1.0376e-07 5.67764 
5.80231 -1.0376e-07 21.79 
15.4295 -1.0376e-07 20.6045 
18.2367 -1.0376e-07 20.8906 
11.5395 -1.0376e-07 16.8914 
17.2724 -1.0376e-07 15.1934 
7.33301 -1.0376e-07 25.3431 
8.01811 -1.0376e-07 22.0138 
16.8472 -1.0376e-07 20.7896 
10.3793 -1.0376e-07 19.0124 
7.23301 -1.0376e-07 26.0412 
11.8681 -1.0376e-07 27.2035 
18.97 -1.0376e-07 2.55902 
3.24191 -1.0376e-07 28.7829 
9.50061 -1.0376e-07 28.5899 
19.3446 -1.0376e-07 18.1996 
6.85441 -1.0376e-07 23.6213 
17.8469 -1.0376e-07 5.08751 
16.6915 -1.0376e-07 18.7031 
19.6355 -1.0376e-07 26.4604 
11.9565 -1.0376e-07 21.1969 
12.6411 -1.0376e-07 26.6978 
8.14091 -1.0376e-07 25.2487 
4.24391 -1.0376e-07 26.0409 
18.4479 -1.0376e-07 19.8892 
17.2377 -1.0376e-07 10.4842 
18.7763 -1.0376e-07 25.8832 
13.8208 -1.0376e-07 12.784 
14.5766 -1.0376e-07 24.5676 
9.99131 -1.0376e-07 26.93 
19.8266 -1.0376e-07 19.2926 
13.9357 -1.0376e-07 10.8305 
16.3201 -1.0376e-07 19.906 
18.2532 -1.0376e-07 18.3919 
6.31671 -1.0376e-07 21.3918 
11.1404 -1.0376e-07 22.9402 
16.654 -1.0376e-07 7.25096 
10.2398 -1.0376e-07 24.8377 
12.7714 -1.0376e-07 13.2716 
18.5958 -1.0376e-07 17.8192 
13.3222 -1.0376e-07 17.7507 
12.9462 -1.0376e-07 16.8912 
17.6719 -1.0376e-07 9.94153 
17.4483 -1.0376e-07 11.3816 
19.6353 -1.0376e-07 3.31539 
13.1316 -1.0376e-07 27.6117 
19.2348 -1.0376e-07 8.14009 
19.8284 -1.0376e-07 14.4702 
18.1092 -1.0376e-07 22.2129 
18.4348 -1.0376e-07 3.987 
8.52481 -1.0376e-07 19.4008 
6.96201 -1.0376e-07 29.4016 
8.69821 -1.0376e-07 17.9107 
10.4572 -1.0376e-07 26.3312 
16.1688 -1.0376e-07 18.2624 
18.4984 -1.0376e-07 4.50207 
10.3899 -1.0376e-07 17.2877 
16.6654 -1.0376e-07 8.74388 
16.7732 -1.0376e-07 7.64889 
10.4685 -1.0376e-07 19.3375 
19.2428 -1.0376e-07 19.3947 
14.1683 -1.0376e-07 20.0017 
3.22351 -1.0376e-07 26.5744 
19.1758 -1.0376e-07 14.7051 
11.8009 -1.0376e-07 24.2528 
13.2062 -1.0376e-07 27.4978 
12.851 -1.0376e-07 12.8813 
13.9909 -1.0376e-07 11.7224 
14.9082 -1.0376e-07 20.0712 
6.14201 -1.0376e-07 24.681 
9.29611 -1.0376e-07 23.1908 
11.0515 -1.0376e-07 28.8937 
1.73891 -1.0376e-07 27.4077 
19.1827 -1.0376e-07 8.80482 
6.83531 -1.0376e-07 23.4328 
16.6037 -1.0376e-07 8.14377 
17.83 -1.0376e-07 7.51707 
14.8767 -1.0376e-07 10.0562 
16.8646 -1.0376e-07 29.5088 
8.84271 -1.0376e-07 20.3824 
15.6654 -1.0376e-07 25.4459 
12.6185 -1.0376e-07 17.0575 
14.278 -1.0376e-07 12.976 
18.6958 -1.0376e-07 22.6427 
5.37071 -1.0376e-07 27.8142 
6.90511 -1.0376e-07 23.4553 
11.0699 -1.0376e-07 23.8537 
2.77951 -1.0376e-07 28.7707 
15.2444 -1.0376e-07 16.1319 
16.8931 -1.0376e-07 16.4269 
5.44681 -1.0376e-07 22.4755 
8.31321 -1.0376e-07 21.8068 
19.8149 -1.0376e-07 0.879021 
19.576 -1.0376e-07 13.1815 
8.92901 -1.0376e-07 24.2606 
6.56871 -1.0376e-07 25.1547 
12.2378 -1.0376e-07 15.9592 
19.7661 -1.0376e-07 4.19897 
18.4884 -1.0376e-07 8.84864 
16.8582 -1.0376e-07 26.6065 
3.80231 -1.0376e-07 29.8768 
18.5444 -1.0376e-07 14.874 
16.7462 -1.0376e-07 21.5942 
15.0424 -1.0376e-07 19.2336 
7.77711 -1.0376e-07 28.2382 
19.5671 -1.0376e-07 3.91094 
17.2763 -1.0376e-07 19.5472 
18.1798 -1.0376e-07 4.89966 
15.4457 -1.0376e-07 26.1674 
8.65511 -1.0376e-07 23.3881 
9.75301 -1.0376e-07 26.3385 
9.76291 -1.0376e-07 23.6282 
12.4029 -1.0376e-07 18.0688 
4.57911 -1.0376e-07 28.2366 
18.841 -1.0376e-07 27.1414 
10.7189 -1.0376e-07 22.9902 
18.0579 -1.0376e-07 23.2769 
11.7466 -1.0376e-07 25.7545 
8.99951 -1.0376e-07 28.6227 
17.5655 -1.0376e-07 16.0366 
19.6853 -1.0376e-07 29.6397 
14.9162 -1.0376e-07 24.5833 
12.7228 -1.0376e-07 26.3769 
12.8697 -1.0376e-07 29.3487 
11.8756 -1.0376e-07 27.7436 
16.0644 -1.0376e-07 13.1873 
15.8361 -1.0376e-07 17.0564 
15.2447 -1.0376e-07 28.6971 
6.99061 -1.0376e-07 29.5034 
15.1143 -1.0376e-07 8.51385 
4.01961 -1.0376e-07 27.2517 
10.1786 -1.0376e-07 27.8376 
9.25131 -1.0376e-07 24.0881 
17.2714 -1.0376e-07 13.0125 
16.5016 -1.0376e-07 5.54133 
14.9557 -1.0376e-07 23.7175 
12.6707 -1.0376e-07 18.8836 
16.2899 -1.0376e-07 22.2681 
16.8598 -1.0376e-07 12.739 
10.8088 -1.0376e-07 27.3446 
4.35181 -1.0376e-07 28.0716 
18.7183 -1.0376e-07 29.552 
12.9342 -1.0376e-07 19.2836 
18.6791 -1.0376e-07 28.068 
12.7583 -1.0376e-07 28.5565 
15.9821 -1.0376e-07 28.5325 
17.3152 -1.0376e-07 14.1003 
15.8393 -1.0376e-07 14.49 
16.3628 -1.0376e-07 8.54159 
17.3522 -1.0376e-07 9.42902 
13.3142 -1.0376e-07 24.1597 
8.35431 -1.0376e-07 27.7893 
7.42961 -1.0376e-07 19.7896 
10.7705 -1.0376e-07 17.1332 
17.9974 -1.0376e-07 20.8874 
19.2577 -1.0376e-07 26.6325 
19.7267 -1.0376e-07 16.2331 
10.4563 -1.0376e-07 27.047 
17.9683 -1.0376e-07 20.6123 
19.7658 -1.0376e-07 25.3293 
10.4748 -1.0376e-07 22.4752 
17.9217 -1.0376e-07 8.46129 
5.14571 -1.0376e-07 26.3015 
16.4155 -1.0376e-07 6.20708 
19.6412 -1.0376e-07 1.47759 
4.75751 -1.0376e-07 23.3616 
13.7209 -1.0376e-07 10.4601 
9.79631 -1.0376e-07 15.3614 
18.9876 -1.0376e-07 6.92628 
17.7309 -1.0376e-07 25.321 
8.93571 -1.0376e-07 25.2211 
18.7117 -1.0376e-07 2.53736 
15.217 -1.0376e-07 10.4602 
9.44931 -1.0376e-07 29.0154 
2.75511 -1.0376e-07 28.0056 
17.6318 -1.0376e-07 24.3888 
17.0406 -1.0376e-07 14.6911 
16.8181 -1.0376e-07 26.6799 
6.17961 -1.0376e-07 25.2554 
9.06851 -1.0376e-07 29.7317 
14.8666 -1.0376e-07 13.7565 
10.8044 -1.0376e-07 16.2188 
18.3354 -1.0376e-07 7.93468 
13.7944 -1.0376e-07 13.3766 
16.7312 -1.0376e-07 22.3274 
16.2309 -1.0376e-07 20.2946 
13.0859 -1.0376e-07 22.0145 
13.4337 -1.0376e-07 14.4322 
5.23831 -1.0376e-07 27.5073 
6.66011 -1.0376e-07 22.1892 
19.5668 -1.0376e-07 8.72712 
12.6892 -1.0376e-07 12.0674 
9.05031 -1.0376e-07 27.1285 
13.0395 -1.0376e-07 19.1189 
5.02651 -1.0376e-07 28.9008 
3.87391 -1.0376e-07 25.8688 
18.5134 -1.0376e-07 28.2058 
16.0598 -1.0376e-07 15.1125 
14.9509 -1.0376e-07 15.141 
15.6262 -1.0376e-07 24.7282 
18.9012 -1.0376e-07 16.1902 
8.29801 -1.0376e-07 23.8022 
10.0911 -1.0376e-07 29.6144 
18.0979 -1.0376e-07 24.1326 
13.7776 -1.0376e-07 22.7579 
19.8351 -1.0376e-07 11.5928 
13.97 -1.0376e-07 29.5543 
7.18691 -1.0376e-07 25.935 
17.907 -1.0376e-07 13.1845 
13.7756 -1.0376e-07 23.4132 
11.2054 -1.0376e-07 28.8103 
19.8412 -1.0376e-07 24.6983 
13.7268 -1.0376e-07 22.477 
19.9753 -1.0376e-07 2.41107 
8.79641 -1.0376e-07 25.3437 
6.97001 -1.0376e-07 28.0964 
6.53131 -1.0376e-07 20.3467 
11.0869 -1.0376e-07 23.1045 
13.8514 -1.0376e-07 14.0297 
12.3306 -1.0376e-07 23.8003 
9.53171 -1.0376e-07 24.035 
8.58901 -1.0376e-07 26.0666 
14.6793 -1.0376e-07 12.7516 
2.42161 -1.0376e-07 26.9336 
4.75951 -1.0376e-07 29.3544 
19.9324 -1.0376e-07 17.9541 
12.95 -1.0376e-07 20.0109 
15.6231 -1.0376e-07 8.99814 
15.8452 -1.0376e-07 28.3627 
16.0114 -1.0376e-07 16.8545 
8.08851 -1.0376e-07 21.198 
18.9874 -1.0376e-07 27.9131 
14.2495 -1.0376e-07 11.3364 
14.3764 -1.0376e-07 24.4967 
16.3519 -1.0376e-07 9.87463 
17.5165 -1.0376e-07 12.399 
12.0153 -1.0376e-07 23.2431 
18.5981 -1.0376e-07 19.9804 
14.4471 -1.0376e-07 28.3192 
13.243 -1.0376e-07 24.0046 
9.22921 -1.0376e-07 22.0973 
19.3999 -1.0376e-07 12.1865 
12.8215 -1.0376e-07 17.7833 
16.5001 -1.0376e-07 20.9242 
17.3828 -1.0376e-07 4.23064 
18.6784 -1.0376e-07 6.48861 
7.80081 -1.0376e-07 21.2326 
12.236 -1.0376e-07 19.089 
17.0039 -1.0376e-07 12.8953 
17.3306 -1.0376e-07 22.9564 
16.8357 -1.0376e-07 19.761 
0.288108 -1.0376e-07 29.6114 
17.2606 -1.0376e-07 24.3405 
19.7435 -1.0376e-07 14.8727 
3.33701 -1.0376e-07 25.6281 
8.38231 -1.0376e-07 25.7682 
15.0476 -1.0376e-07 12.1624 
17.8157 -1.0376e-07 16.967 
18.8744 -1.0376e-07 24.1755 
12.2631 -1.0376e-07 20.3701 
6.94631 -1.0376e-07 28.4935 
19.5815 -1.0376e-07 22.3713 
18.4919 -1.0376e-07 10.3673 
14.9989 -1.0376e-07 15.0451 
12.9861 -1.0376e-07 28.4112 
17.3694 -1.0376e-07 11.9384 
9.75191 -1.0376e-07 23.8398 
9.51631 -1.0376e-07 21.9809 
17.7261 -1.0376e-07 5.00175 
18.1876 -1.0376e-07 5.75323 
15.3693 -1.0376e-07 11.6866 
18.7011 -1.0376e-07 19.7563 
13.9855 -1.0376e-07 15.9624 
19.4083 -1.0376e-07 1.89525 
12.8543 -1.0376e-07 26.0732 
9.67161 -1.0376e-07 18.996 
19.2098 -1.0376e-07 21.1675 
15.6598 -1.0376e-07 26.5258 
15.8738 -1.0376e-07 16.9861 
18.3871 -1.0376e-07 29.5165 
19.0315 -1.0376e-07 14.2402 
19.6766 -1.0376e-07 1.43298 
5.32371 -1.0376e-07 25.2745 
9.84921 -1.0376e-07 29.5968 
13.5604 -1.0376e-07 18.8866 
3.13701 -1.0376e-07 25.9981 
4.94541 -1.0376e-07 25.2638 
17.5204 -1.0376e-07 4.19059 
12.7208 -1.0376e-07 27.4612 
19.9709 -1.0376e-07 3.30219 
7.05251 -1.0376e-07 19.5164 
19.4472 -1.0376e-07 17.6108 
12.251 -1.0376e-07 24.9317 
10.2192 -1.0376e-07 17.2346 
15.7087 -1.0376e-07 25.7956 
11.0909 -1.0376e-07 21.2157 
7.59651 -1.0376e-07 20.452 
13.1724 -1.0376e-07 28.4171 
16.5777 -1.0376e-07 26.5979 
9.32071 -1.0376e-07 22.7853 
6.81311 -1.0376e-07 22.9078 
7.84931 -1.0376e-07 23.4947 
16.7117 -1.0376e-07 24.527 
19.7261 -1.0376e-07 18.424 
10.0497 -1.0376e-07 21.0322 
16.4733 -1.0376e-07 23.9509 
6.70261 -1.0376e-07 21.1356 
13.3368 -1.0376e-07 18.0781 
12.6195 -1.0376e-07 27.1155 
7.66041 -1.0376e-07 29.8771 
19.0005 -1.0376e-07 21.9115 
16.3566 -1.0376e-07 22.0802 
11.2979 -1.0376e-07 13.7067 
16.0926 -1.0376e-07 22.29 
5.88251 -1.0376e-07 28.8484 
17.105 -1.0376e-07 28.701 
9.74651 -1.0376e-07 22.5549 
4.09071 -1.0376e-07 27.9497 
19.1579 -1.0376e-07 16.7777 
10.778 -1.0376e-07 27.6649 
8.66041 -1.0376e-07 27.4174 
19.1572 -1.0376e-07 14.1272 
10.6372 -1.0376e-07 21.8311 
16.4464 -1.0376e-07 23.7348 
9.55631 -1.0376e-07 18.0018 
5.99401 -1.0376e-07 29.6947 
14.7487 -1.0376e-07 14.2632 
9.83111 -1.0376e-07 29.7775 
8.73821 -1.0376e-07 26.4181 
17.6325 -1.0376e-07 9.54669 
19.5739 -1.0376e-07 29.9527 
6.16271 -1.0376e-07 27.7513 
15.0412 -1.0376e-07 11.6486 
8.27751 -1.0376e-07 28.6388 
19.9129 -1.0376e-07 4.89086 
7.00451 -1.0376e-07 25.0194 
6.68051 -1.0376e-07 21.507 
9.00271 -1.0376e-07 29.1249 
18.9806 -1.0376e-07 5.58413 
14.8354 -1.0376e-07 14.1788 
12.4493 -1.0376e-07 25.4346 
15.4096 -1.0376e-07 12.4928 
15.8134 -1.0376e-07 16.9949 
13.8547 -1.0376e-07 19.3591 
8.36211 -1.0376e-07 17.8361 
16.2515 -1.0376e-07 24.5571 
9.76711 -1.0376e-07 15.9969 
15.0633 -1.0376e-07 25.3655 
10.3138 -1.0376e-07 28.571 
15.1688 -1.0376e-07 22.7776 
10.8383 -1.0376e-07 14.6749 
11.0781 -1.0376e-07 18.1474 
19.9756 -1.0376e-07 1.97072 
4.66911 -1.0376e-07 24.5378 
11.6539 -1.0376e-07 13.6775 
16.7504 -1.0376e-07 13.7482 
15.3531 -1.0376e-07 16.1398 
12.8264 -1.0376e-07 23.9229 
15.9949 -1.0376e-07 13.7569 
14.8453 -1.0376e-07 29.1272 
15.2504 -1.0376e-07 14.2047 
13.1743 -1.0376e-07 19.6705 
10.5189 -1.0376e-07 23.3544 
17.2804 -1.0376e-07 4.94127 
13.6117 -1.0376e-07 14.1308 
4.97221 -1.0376e-07 27.8261 
18.6497 -1.0376e-07 9.30679 
19.737 -1.0376e-07 25.0645 
19.2307 -1.0376e-07 27.0848 
17.7333 -1.0376e-07 10.1049 
5.95241 -1.0376e-07 29.8972 
13.8285 -1.0376e-07 18.0578 
5.53231 -1.0376e-07 23.9082 
15.0588 -1.0376e-07 12.379 
18.0021 -1.0376e-07 3.38018 
16.0527 -1.0376e-07 7.54493 
16.0104 -1.0376e-07 13.0762 
16.4066 -1.0376e-07 17.5067 
13.6062 -1.0376e-07 23.5119 
5.93361 -1.0376e-07 26.8192 
16.8833 -1.0376e-07 16.6046 
10.632 -1.0376e-07 15.3975 
17.7348 -1.0376e-07 21.6799 
17.8083 -1.0376e-07 26.6621 
19.6781 -1.0376e-07 23.4778 
17.9186 -1.0376e-07 23.1215 
16.7132 -1.0376e-07 11.8255 
10.3174 -1.0376e-07 23.9717 
16.5122 -1.0376e-07 20.1259 
9.44221 -1.0376e-07 26.885 
9.76851 -1.0376e-07 19.6576 
19.7048 -1.0376e-07 14.0154 
14.7688 -1.0376e-07 20.6553 
12.5637 -1.0376e-07 26.7731 
14.6641 -1.0376e-07 28.5016 
15.0684 -1.0376e-07 20.0662 
10.8327 -1.0376e-07 23.6885 
9.53701 -1.0376e-07 15.9614 
13.9114 -1.0376e-07 23.0152 
12.8169 -1.0376e-07 26.5758 
19.9983 -1.0376e-07 13.1417 
15.5794 -1.0376e-07 10.5336 
18.4513 -1.0376e-07 15.4894 
16.4537 -1.0376e-07 28.6342 
12.095 -1.0376e-07 13.9158 
17.7917 -1.0376e-07 19.4358 
14.0288 -1.0376e-07 12.411 
13.6776 -1.0376e-07 26.0082 
9.52971 -1.0376e-07 16.0707 
18.2159 -1.0376e-07 25.9416 
19.1698 -1.0376e-07 24.2535 
9.05721 -1.0376e-07 22.6975 
10.0848 -1.0376e-07 22.3556 
11.4292 -1.0376e-07 21.6777 
19.1064 -1.0376e-07 1.71075 
15.5243 -1.0376e-07 23.4651 
17.6523 -1.0376e-07 28.1606 
14.5652 -1.0376e-07 20.1323 
11.6242 -1.0376e-07 19.4589 
19.9259 -1.0376e-07 15.0858 
10.7574 -1.0376e-07 16.5051 
18.2452 -1.0376e-07 29.172 
2.40131 -1.0376e-07 27.0463 
15.3695 -1.0376e-07 27.968 
10.5676 -1.0376e-07 23.376 
15.0016 -1.0376e-07 15.1155 
16.3805 -1.0376e-07 23.1198 
13.3323 -1.0376e-07 19.8045 
15.7016 -1.0376e-07 20.5147 
8.94871 -1.0376e-07 29.2621 
15.4358 -1.0376e-07 20.1342 
18.7297 -1.0376e-07 22.4509 
17.9365 -1.0376e-07 24.8298 
2.01191 -1.0376e-07 28.146 
18.3911 -1.0376e-07 24.756 
15.2229 -1.0376e-07 24.935 
19.3827 -1.0376e-07 21.4878 
18.8528 -1.0376e-07 27.6168 
16.1384 -1.0376e-07 23.4949 
16.0721 -1.0376e-07 17.0391 
10.9534 -1.0376e-07 20.2935 
9.36871 -1.0376e-07 24.1607 
16.4945 -1.0376e-07 26.7131 
13.2957 -1.0376e-07 17.0197 
12.8346 -1.0376e-07 26.8073 
11.49 -1.0376e-07 29.0141 
13.9748 -1.0376e-07 11.3064 
12.5768 -1.0376e-07 22.3362 
12.3953 -1.0376e-07 12.1268 
16.2988 -1.0376e-07 9.92784 
11.8091 -1.0376e-07 20.4623 
13.8612 -1.0376e-07 13.3602 
17.4385 -1.0376e-07 13.2148 
10.6178 -1.0376e-07 23.9466 
13.7522 -1.0376e-07 24.9877 
12.7327 -1.0376e-07 28.8561 
11.253 -1.0376e-07 24.1793 
18.8756 -1.0376e-07 29.2649 
11.3066 -1.0376e-07 16.1131 
19.8146 -1.0376e-07 6.7396 
12.5468 -1.0376e-07 29.2465 
10.5481 -1.0376e-07 14.5124 
4.79111 -1.0376e-07 29.1013 
7.37961 -1.0376e-07 29.9297 
13.1459 -1.0376e-07 22.0347 
8.22161 -1.0376e-07 22.8131 
15.7194 -1.0376e-07 20.0639 
8.34691 -1.0376e-07 22.7314 
19.1615 -1.0376e-07 26.5952 
9.88431 -1.0376e-07 28.0981 
10.3645 -1.0376e-07 21.0509 
12.7057 -1.0376e-07 29.4163 
1.31711 -1.0376e-07 28.6334 
18.9561 -1.0376e-07 4.20062 
18.915 -1.0376e-07 6.52632 
15.938 -1.0376e-07 10.6323 
12.102 -1.0376e-07 27.0729 
13.0881 -1.0376e-07 11.6046 
14.1692 -1.0376e-07 16.9001 
9.04071 -1.0376e-07 29.1908 
5.87061 -1.0376e-07 21.8626 
8.56551 -1.0376e-07 27.9886 
13.739 -1.0376e-07 25.2246 
18.9713 -1.0376e-07 15.0518 
15.6192 -1.0376e-07 24.4165 
9.33641 -1.0376e-07 18.8483 
15.4166 -1.0376e-07 13.4817 
19.0751 -1.0376e-07 24.203 
10.1618 -1.0376e-07 23.7126 
14.5256 -1.0376e-07 21.3765 
17.6146 -1.0376e-07 6.11989 
17.0035 -1.0376e-07 28.143 
15.0117 -1.0376e-07 29.543 
12.3872 -1.0376e-07 19.5164 
17.7154 -1.0376e-07 13.3057 
9.77961 -1.0376e-07 27.8421 
19.8689 -1.0376e-07 4.14633 
18.2895 -1.0376e-07 19.0687 
1.59701 -1.0376e-07 29.5193 
12.212 -1.0376e-07 12.3933 
15.0928 -1.0376e-07 8.07254 
17.3406 -1.0376e-07 11.5965 
7.49871 -1.0376e-07 29.0717 
19.2416 -1.0376e-07 2.13186 
18.9782 -1.0376e-07 19.6812 
13.9984 -1.0376e-07 17.885 
17.7193 -1.0376e-07 16.3727 
11.2655 -1.0376e-07 22.0124 
16.8423 -1.0376e-07 8.32527 
8.82181 -1.0376e-07 26.3311 
13.8843 -1.0376e-07 28.0722 
17.4512 -1.0376e-07 28.8452 
19.2822 -1.0376e-07 11.9884 
18.568 -1.0376e-07 20.9225 
12.2092 -1.0376e-07 24.3545 
16.28 -1.0376e-07 28.326 
14.3822 -1.0376e-07 25.1853 
11.9466 -1.0376e-07 29.9749 
10.6286 -1.0376e-07 29.4504 
12.8117 -1.0376e-07 28.0067 
15.7913 -1.0376e-07 11.0664 
19.0888 -1.0376e-07 20.9343 
9.56081 -1.0376e-07 23.9167 
14.8134 -1.0376e-07 20.768 
15.5183 -1.0376e-07 29.9406 
4.94381 -1.0376e-07 28.7204 
17.0933 -1.0376e-07 27.8111 
14.8012 -1.0376e-07 14.3358 
9.62311 -1.0376e-07 20.2049 
19.0212 -1.0376e-07 5.15186 
18.3837 -1.0376e-07 12.9373 
1.64451 -1.0376e-07 29.919 
6.94481 -1.0376e-07 25.9593 
1.52481 -1.0376e-07 28.1429 
11.6138 -1.0376e-07 25.0363 
11.8955 -1.0376e-07 13.3325 
16.2306 -1.0376e-07 18.3646 
9.08551 -1.0376e-07 17.7756 
8.63111 -1.0376e-07 26.3686 
15.1863 -1.0376e-07 20.3493 
18.8179 -1.0376e-07 23.4077 
15.4815 -1.0376e-07 21.6524 
13.6578 -1.0376e-07 13.0038 
17.0374 -1.0376e-07 28.55 
13.753 -1.0376e-07 16.0094 
10.361 -1.0376e-07 23.5025 
19.2727 -1.0376e-07 7.72422 
15.5139 -1.0376e-07 11.032 
15.1841 -1.0376e-07 25.0325 
17.5205 -1.0376e-07 5.59994 
7.34891 -1.0376e-07 20.9389 
12.3145 -1.0376e-07 27.9855 
10.7261 -1.0376e-07 19.3681 
9.86301 -1.0376e-07 21.0178 
16.0606 -1.0376e-07 23.0486 
18.6342 -1.0376e-07 27.1871 
19.2114 -1.0376e-07 29.8038 
10.7966 -1.0376e-07 24.5515 
2.66971 -1.0376e-07 26.7689 
18.0098 -1.0376e-07 17.4914 
11.2609 -1.0376e-07 16.0113 
9.58671 -1.0376e-07 19.7941 
13.7303 -1.0376e-07 15.6768 
2.42661 -1.0376e-07 27.2323 
7.88521 -1.0376e-07 23.9269 
15.8785 -1.0376e-07 19.3596 
14.9633 -1.0376e-07 7.90929 
10.8882 -1.0376e-07 14.7138 
14.5043 -1.0376e-07 13.3472 
17.448 -1.0376e-07 13.0265 
12.0805 -1.0376e-07 22.9546 
13.784 -1.0376e-07 18.2582 
17.1151 -1.0376e-07 23.3397 
15.466 -1.0376e-07 29.8143 
5.19061 -1.0376e-07 24.0032 
11.1672 -1.0376e-07 17.3502 
15.7765 -1.0376e-07 29.7528 
7.49261 -1.0376e-07 20.2973 
6.20501 -1.0376e-07 27.4484 
18.1434 -1.0376e-07 26.8516 
11.4778 -1.0376e-07 17.9038 
10.3409 -1.0376e-07 19.5017 
16.3037 -1.0376e-07 15.0496 
17.3693 -1.0376e-07 15.5965 
15.7348 -1.0376e-07 29.0165 
11.6959 -1.0376e-07 22.1052 
18.9937 -1.0376e-07 4.4722 
15.4015 -1.0376e-07 27.2609 
19.7913 -1.0376e-07 26.7395 
13.069 -1.0376e-07 14.4909 
18.0544 -1.0376e-07 23.4633 
13.7907 -1.0376e-07 27.9076 
8.44661 -1.0376e-07 26.0422 
7.37611 -1.0376e-07 24.3924 
16.0102 -1.0376e-07 23.9569 
10.6397 -1.0376e-07 28.9133 
5.66491 -1.0376e-07 28.9404 
9.14121 -1.0376e-07 21.5767 
19.7767 -1.0376e-07 6.79719 
5.05231 -1.0376e-07 27.5654 
15.9466 -1.0376e-07 8.16138 
16.4968 -1.0376e-07 6.51842 
17.7527 -1.0376e-07 20.02 
13.0375 -1.0376e-07 18.8673 
12.299 -1.0376e-07 23.6175 
12.8135 -1.0376e-07 17.6337 
5.87011 -1.0376e-07 28.5535 
10.3056 -1.0376e-07 25.3126 
9.82311 -1.0376e-07 19.2286 
15.4848 -1.0376e-07 17.4775 
13.3576 -1.0376e-07 27.0774 
13.5064 -1.0376e-07 16.4114 
12.5634 -1.0376e-07 18.9335 
14.0922 -1.0376e-07 21.4245 
17.2005 -1.0376e-07 8.9217 
16.3305 -1.0376e-07 12.28 
15.2205 -1.0376e-07 28.5754 
18.6812 -1.0376e-07 20.993 
9.12271 -1.0376e-07 20.7137 
8.09991 -1.0376e-07 24.7842 
18.3074 -1.0376e-07 10.3174 
12.859 -1.0376e-07 22.271 
4.66221 -1.0376e-07 26.7466 
15.9352 -1.0376e-07 25.7658 
7.61361 -1.0376e-07 22.535 
15.3679 -1.0376e-07 21.3268 
13.7516 -1.0376e-07 17.7052 
10.2082 -1.0376e-07 23.8094 
15.8936 -1.0376e-07 18.5626 
9.18411 -1.0376e-07 29.6778 
5.74671 -1.0376e-07 29.3846 
11.1882 -1.0376e-07 17.4538 
15.8623 -1.0376e-07 8.0741 
11.2669 -1.0376e-07 23.9608 
3.61491 -1.0376e-07 29.9435 
11.3773 -1.0376e-07 16.1185 
17.7816 -1.0376e-07 22.9089 
12.8941 -1.0376e-07 24.0691 
16.3921 -1.0376e-07 10.1373 
19.52 -1.0376e-07 23.9361 
17.6963 -1.0376e-07 18.8751 
14.6997 -1.0376e-07 29.1323 
14.8566 -1.0376e-07 18.8631 
16.0243 -1.0376e-07 29.3958 
13.2444 -1.0376e-07 19.7754 
8.34891 -1.0376e-07 27.8414 
11.1295 -1.0376e-07 26.5611 
18.2591 -1.0376e-07 7.48409 
8.50911 -1.0376e-07 25.668 
10.4984 -1.0376e-07 28.1725 
6.23741 -1.0376e-07 21.5174 
18.2695 -1.0376e-07 16.4726 
11.6042 -1.0376e-07 12.76 
1.09461 -1.0376e-07 29.8727 
16.9123 -1.0376e-07 5.20762 
11.1816 -1.0376e-07 29.6878 
15.3971 -1.0376e-07 12.9714 
17.3056 -1.0376e-07 4.63213 
11.789 -1.0376e-07 20.2704 
18.2737 -1.0376e-07 22.0091 
13.0842 -1.0376e-07 28.9495 
19.2357 -1.0376e-07 28.9781 
18.3753 -1.0376e-07 21.6757 
15.1537 -1.0376e-07 11.2141 
7.54171 -1.0376e-07 25.1962 
18.9862 -1.0376e-07 7.61882 
11.6007 -1.0376e-07 28.7292 
18.5754 -1.0376e-07 29.2507 
8.28781 -1.0376e-07 18.5775 
16.2054 -1.0376e-07 17.2113 
10.1739 -1.0376e-07 19.4606 
15.4081 -1.0376e-07 12.7028 
18.6187 -1.0376e-07 14.4343 
15.9179 -1.0376e-07 29.2473 
3.97651 -1.0376e-07 27.7254 
7.03241 -1.0376e-07 24.2805 
16.8364 -1.0376e-07 9.18555 
7.37451 -1.0376e-07 21.4761 
5.69101 -1.0376e-07 27.6394 
17.5219 -1.0376e-07 14.2087 
8.86281 -1.0376e-07 27.9968 
18.115 -1.0376e-07 18.2281 
11.5755 -1.0376e-07 17.5623 
16.595 -1.0376e-07 5.93739 
8.44051 -1.0376e-07 17.8002 
18.1414 -1.0376e-07 20.9155 
18.8099 -1.0376e-07 18.7076 
8.10391 -1.0376e-07 25.3565 
18.3192 -1.0376e-07 9.89227 
6.59131 -1.0376e-07 29.422 
7.06701 -1.0376e-07 25.8057 
15.7934 -1.0376e-07 17.8207 
9.12551 -1.0376e-07 20.7731 
17.4276 -1.0376e-07 10.6433 
13.6175 -1.0376e-07 18.588 
12.7191 -1.0376e-07 28.6854 
4.40441 -1.0376e-07 28.2361 
13.1054 -1.0376e-07 29.3778 
12.9308 -1.0376e-07 19.5825 
18.1773 -1.0376e-07 19.6206 
4.05821 -1.0376e-07 27.1008 
5.95731 -1.0376e-07 26.6774 
8.78661 -1.0376e-07 18.3134 
10.7282 -1.0376e-07 20.5576 
18.6789 -1.0376e-07 5.78746 
14.9498 -1.0376e-07 24.4883 
17.7792 -1.0376e-07 8.78498 
11.1991 -1.0376e-07 27.4526 
14.3054 -1.0376e-07 11.7363 
8.75081 -1.0376e-07 23.5974 
15.3178 -1.0376e-07 11.0762 
12.6097 -1.0376e-07 28.547 
1.10631 -1.0376e-07 29.927 
18.7772 -1.0376e-07 29.3502 
18.2588 -1.0376e-07 27.0744 
9.69581 -1.0376e-07 21.4819 
16.6417 -1.0376e-07 26.5381 
15.6943 -1.0376e-07 7.24446 
10.251 -1.0376e-07 20.1235 
16.1664 -1.0376e-07 14.1333 
16.3825 -1.0376e-07 18.0325 
18.0649 -1.0376e-07 12.4918 
11.8663 -1.0376e-07 25.0063 
17.7589 -1.0376e-07 13.692 
10.2071 -1.0376e-07 14.7553 
16.9559 -1.0376e-07 20.7635 
16.8528 -1.0376e-07 16.6684 
17.4407 -1.0376e-07 7.01018 
17.0717 -1.0376e-07 20.222 
16.4255 -1.0376e-07 26.1815 
18.6608 -1.0376e-07 13.9589 
19.5655 -1.0376e-07 10.4547 
18.8921 -1.0376e-07 6.32296 
9.33821 -1.0376e-07 23.625 
11.18 -1.0376e-07 16.8362 
19.2415 -1.0376e-07 24.927 
14.4258 -1.0376e-07 10.7327 
19.6511 -1.0376e-07 20.3304 
14.6646 -1.0376e-07 29.6914 
18.1053 -1.0376e-07 23.8297 
15.6089 -1.0376e-07 22.1275 
8.75831 -1.0376e-07 16.8732 
19.9265 -1.0376e-07 22.112 
16.9493 -1.0376e-07 4.95296 
19.0368 -1.0376e-07 22.7083 
16.8455 -1.0376e-07 25.6453 
19.3764 -1.0376e-07 15.1873 
13.5256 -1.0376e-07 20.9084 
19.6461 -1.0376e-07 26.3986 
15.1624 -1.0376e-07 23.0488 
13.7224 -1.0376e-07 29.7662 
14.9499 -1.0376e-07 15.839 
11.4546 -1.0376e-07 24.0777 
12.1109 -1.0376e-07 29.6956 
10.0667 -1.0376e-07 16.2032 
19.0248 -1.0376e-07 14.3014 
2.46791 -1.0376e-07 28.0073 
5.49461 -1.0376e-07 22.224 
9.53471 -1.0376e-07 24.3524 
17.8958 -1.0376e-07 13.0436 
10.2026 -1.0376e-07 27.0745 
19.9591 -1.0376e-07 29.1532 
4.31531 -1.0376e-07 11.3988 
6.01751 -1.0376e-07 15.0925 
0.618509 -1.0376e-07 19.0759 
2.64001 -1.0376e-07 15.1347 
2.79671 -1.0376e-07 19.8865 
14.2277 -1.0376e-07 1.03983 
1.65431 -1.0376e-07 13.1264 
1.71591 -1.0376e-07 14.985 
2.58051 -1.0376e-07 8.85907 
13.4226 -1.0376e-07 2.28862 
6.07331 -1.0376e-07 2.53937 
2.51221 -1.0376e-07 13.3828 
9.33601 -1.0376e-07 14.6976 
6.76341 -1.0376e-07 8.90177 
5.01581 -1.0376e-07 9.73562 
2.96101 -1.0376e-07 2.91488 
3.01051 -1.0376e-07 8.93233 
10.4309 -1.0376e-07 1.7768 
13.1518 -1.0376e-07 0.398478 
5.74971 -1.0376e-07 18.3986 
3.87461 -1.0376e-07 1.90742 
3.28881 -1.0376e-07 7.80979 
5.89691 -1.0376e-07 12.6687 
8.02281 -1.0376e-07 14.3736 
3.71511 -1.0376e-07 1.31545 
7.87981 -1.0376e-07 13.0833 
4.33051 -1.0376e-07 22.8219 
13.1046 -1.0376e-07 9.97296 
8.03371 -1.0376e-07 10.235 
6.70131 -1.0376e-07 19.6069 
0.568809 -1.0376e-07 7.26511 
4.77631 -1.0376e-07 18.4877 
7.84551 -1.0376e-07 9.5504 
7.63271 -1.0376e-07 3.2359 
0.956409 -1.0376e-07 13.3201 
1.63211 -1.0376e-07 2.63596 
4.06851 -1.0376e-07 23.7946 
6.65091 -1.0376e-07 7.92733 
8.54271 -1.0376e-07 10.9657 
3.14331 -1.0376e-07 3.38943 
9.35061 -1.0376e-07 13.8615 
0.63451 -1.0376e-07 4.79976 
10.7005 -1.0376e-07 4.23907 
10.4124 -1.0376e-07 5.92739 
3.47121 -1.0376e-07 22.9565 
6.33961 -1.0376e-07 5.3805 
10.5902 -1.0376e-07 1.0733 
5.86751 -1.0376e-07 19.7346 
1.32671 -1.0376e-07 10.6738 
5.93441 -1.0376e-07 10.5905 
12.669 -1.0376e-07 9.29034 
4.59881 -1.0376e-07 0.111579 
2.70011 -1.0376e-07 16.5814 
6.31191 -1.0376e-07 5.92273 
13.0572 -1.0376e-07 2.76177 
1.34251 -1.0376e-07 13.8467 
3.04421 -1.0376e-07 0.576237 
1.69251 -1.0376e-07 24.0875 
17.6203 -1.0376e-07 0.276428 
0.943309 -1.0376e-07 3.90522 
1.53011 -1.0376e-07 0.0968281 
2.81811 -1.0376e-07 3.83855 
2.66581 -1.0376e-07 3.72429 
13.6202 -1.0376e-07 3.94916 
8.74791 -1.0376e-07 14.0116 
7.73321 -1.0376e-07 0.353838 
13.6354 -1.0376e-07 3.57903 
2.82231 -1.0376e-07 13.5414 
3.32281 -1.0376e-07 3.61891 
10.5068 -1.0376e-07 13.2134 
11.5604 -1.0376e-07 5.77769 
1.65901 -1.0376e-07 10.3115 
5.45391 -1.0376e-07 13.3754 
5.99041 -1.0376e-07 15.7018 
2.52811 -1.0376e-07 7.70859 
3.81161 -1.0376e-07 20.5224 
8.94341 -1.0376e-07 7.98732 
5.45071 -1.0376e-07 14.7845 
5.71311 -1.0376e-07 3.72746 
4.37551 -1.0376e-07 5.62086 
7.39751 -1.0376e-07 16.8487 
10.644 -1.0376e-07 13.2939 
8.29551 -1.0376e-07 13.8201 
15.7903 -1.0376e-07 1.99665 
5.47161 -1.0376e-07 1.25247 
2.09181 -1.0376e-07 20.8731 
4.82971 -1.0376e-07 16.0467 
11.3755 -1.0376e-07 3.5197 
2.76091 -1.0376e-07 17.6091 
9.12731 -1.0376e-07 15.6838 
0.512909 -1.0376e-07 17.9462 
0.84181 -1.0376e-07 15.4657 
7.95671 -1.0376e-07 15.4181 
6.56761 -1.0376e-07 6.78995 
3.46461 -1.0376e-07 3.86389 
3.60881 -1.0376e-07 0.701077 
12.8126 -1.0376e-07 1.87 
6.34721 -1.0376e-07 15.95 
14.0221 -1.0376e-07 7.41874 
5.30921 -1.0376e-07 13.8251 
4.96461 -1.0376e-07 13.0008 
6.58111 -1.0376e-07 8.66808 
9.07141 -1.0376e-07 14.4907 
8.94961 -1.0376e-07 4.4844 
4.67001 -1.0376e-07 8.97981 
6.90441 -1.0376e-07 15.3618 
14.421 -1.0376e-07 0.912005 
1.18511 -1.0376e-07 14.6736 
3.63161 -1.0376e-07 18.7314 
7.10051 -1.0376e-07 16.8388 
9.55851 -1.0376e-07 1.63162 
0.0104099 -1.0376e-07 18.9747 
3.43341 -1.0376e-07 0.229349 
1.18851 -1.0376e-07 14.495 
10.6743 -1.0376e-07 10.3003 
1.31621 -1.0376e-07 7.63107 
2.36991 -1.0376e-07 4.37439 
16.7462 -1.0376e-07 2.70868 
6.23231 -1.0376e-07 9.72515 
18.5822 -1.0376e-07 0.677067 
2.72461 -1.0376e-07 20.4422 
13.1477 -1.0376e-07 5.18663 
2.23071 -1.0376e-07 3.84534 
11.1809 -1.0376e-07 7.97805 
2.35371 -1.0376e-07 8.26412 
9.25711 -1.0376e-07 3.74532 
4.51491 -1.0376e-07 11.0351 
10.1759 -1.0376e-07 3.97526 
9.84021 -1.0376e-07 14.1662 
0.547309 -1.0376e-07 1.26298 
10.4714 -1.0376e-07 9.46213 
7.98871 -1.0376e-07 8.87647 
7.27361 -1.0376e-07 4.57307 
14.6733 -1.0376e-07 1.972 
4.35801 -1.0376e-07 18.147 
17.3235 -1.0376e-07 0.275222 
6.12701 -1.0376e-07 2.65543 
7.61381 -1.0376e-07 13.5202 
2.81671 -1.0376e-07 17.7327 
11.4132 -1.0376e-07 6.47653 
1.18231 -1.0376e-07 4.11173 
3.29601 -1.0376e-07 5.47835 
2.27251 -1.0376e-07 23.5454 
16.3908 -1.0376e-07 0.763343 
2.20781 -1.0376e-07 15.9622 
7.04731 -1.0376e-07 13.1715 
9.32041 -1.0376e-07 14.9576 
6.24821 -1.0376e-07 11.8961 
15.9998 -1.0376e-07 1.4982 
0.873809 -1.0376e-07 19.4705 
0.267309 -1.0376e-07 25.062 
8.50711 -1.0376e-07 11.4664 
4.04441 -1.0376e-07 4.4766 
13.8878 -1.0376e-07 4.55249 
3.95861 -1.0376e-07 7.53095 
7.33031 -1.0376e-07 3.4097 
7.16251 -1.0376e-07 7.12368 
5.85461 -1.0376e-07 4.21214 
8.88711 -1.0376e-07 9.83977 
10.6868 -1.0376e-07 7.89438 
6.92891 -1.0376e-07 3.43148 
15.9838 -1.0376e-07 2.84845 
7.08191 -1.0376e-07 12.0617 
5.00681 -1.0376e-07 4.58276 
0.82061 -1.0376e-07 22.9239 
14.213 -1.0376e-07 2.03281 
11.1558 -1.0376e-07 9.84536 
2.73631 -1.0376e-07 24.0488 
3.78581 -1.0376e-07 17.0278 
4.60951 -1.0376e-07 15.1225 
2.57211 -1.0376e-07 16.8544 
16.315 -1.0376e-07 3.9225 
2.70581 -1.0376e-07 11.5603 
0.504909 -1.0376e-07 15.9423 
11.1939 -1.0376e-07 8.99707 
4.44461 -1.0376e-07 18.4961 
12.0835 -1.0376e-07 2.09575 
3.39841 -1.0376e-07 24.5617 
3.00401 -1.0376e-07 1.27606 
7.29231 -1.0376e-07 4.69556 
12.3589 -1.0376e-07 7.4222 
5.85241 -1.0376e-07 20.1206 
5.00741 -1.0376e-07 14.9095 
14.8972 -1.0376e-07 0.47777 
3.91891 -1.0376e-07 17.1921 
10.3938 -1.0376e-07 11.6521 
8.51291 -1.0376e-07 5.02927 
0.403209 -1.0376e-07 8.64656 
8.89211 -1.0376e-07 9.29462 
4.96601 -1.0376e-07 4.07934 
13.016 -1.0376e-07 4.00442 
7.42491 -1.0376e-07 17.8676 
1.61711 -1.0376e-07 6.60585 
2.88831 -1.0376e-07 5.75495 
1.11811 -1.0376e-07 16.4015 
3.04341 -1.0376e-07 12.5396 
5.45431 -1.0376e-07 9.36463 
3.96741 -1.0376e-07 0.486333 
12.6956 -1.0376e-07 5.45108 
4.83961 -1.0376e-07 15.7312 
4.56991 -1.0376e-07 14.1267 
4.46831 -1.0376e-07 7.81921 
1.68731 -1.0376e-07 5.31469 
11.0494 -1.0376e-07 1.41962 
2.67451 -1.0376e-07 23.4444 
8.20981 -1.0376e-07 7.74794 
6.31431 -1.0376e-07 12.724 
3.00371 -1.0376e-07 3.78541 
2.55091 -1.0376e-07 13.8676 
17.4177 -1.0376e-07 0.176127 
13.9201 -1.0376e-07 3.6634 
4.90381 -1.0376e-07 0.462204 
10.3724 -1.0376e-07 2.9642 
7.23741 -1.0376e-07 17.7544 
15.4925 -1.0376e-07 2.70979 
14.7603 -1.0376e-07 7.59812 
8.33781 -1.0376e-07 4.87636 
10.2885 -1.0376e-07 3.11072 
0.984708 -1.0376e-07 9.83014 
0.405408 -1.0376e-07 18.637 
6.62611 -1.0376e-07 2.66773 
6.22371 -1.0376e-07 0.316568 
0.27091 -1.0376e-07 2.01667 
1.66851 -1.0376e-07 2.28909 
16.8067 -1.0376e-07 1.0448 
10.2665 -1.0376e-07 10.7529 
6.07521 -1.0376e-07 17.0774 
4.15551 -1.0376e-07 12.0244 
14.5918 -1.0376e-07 2.77639 
11.7357 -1.0376e-07 2.18292 
11.0559 -1.0376e-07 4.60014 
9.68591 -1.0376e-07 5.78313 
15.769 -1.0376e-07 1.04934 
3.11201 -1.0376e-07 1.75064 
2.35451 -1.0376e-07 12.1746 
8.45961 -1.0376e-07 12.8777 
7.90591 -1.0376e-07 9.59918 
8.30501 -1.0376e-07 16.9021 
2.00371 -1.0376e-07 11.7267 
1.08491 -1.0376e-07 25.4588 
11.4886 -1.0376e-07 0.11466 
3.08401 -1.0376e-07 18.2495 
17.7876 -1.0376e-07 2.73256 
5.73821 -1.0376e-07 8.49829 
15.0482 -1.0376e-07 3.29718 
3.62051 -1.0376e-07 16.0594 
1.75041 -1.0376e-07 13.9975 
9.24241 -1.0376e-07 9.38385 
0.168209 -1.0376e-07 28.9074 
2.13861 -1.0376e-07 23.04 
6.19731 -1.0376e-07 13.2025 
5.49351 -1.0376e-07 19.6269 
3.02251 -1.0376e-07 2.34693 
5.52481 -1.0376e-07 19.3008 
2.52101 -1.0376e-07 14.6996 
9.06211 -1.0376e-07 4.57462 
9.95431 -1.0376e-07 11.0684 
5.06821 -1.0376e-07 20.5404 
6.13251 -1.0376e-07 20.6599 
12.0495 -1.0376e-07 0.735175 
8.24231 -1.0376e-07 3.77377 
0.0184093 -1.0376e-07 26.3209 
2.05821 -1.0376e-07 2.35334 
5.73501 -1.0376e-07 12.5734 
12.4436 -1.0376e-07 9.74453 
5.51481 -1.0376e-07 12.4324 
9.32331 -1.0376e-07 2.87278 
5.94521 -1.0376e-07 7.66989 
1.22401 -1.0376e-07 16.1379 
0.753309 -1.0376e-07 13.3291 
6.78461 -1.0376e-07 0.387514 
5.00801 -1.0376e-07 14.356 
12.439 -1.0376e-07 8.8224 
13.8493 -1.0376e-07 2.24692 
13.3294 -1.0376e-07 0.590951 
8.26531 -1.0376e-07 14.0262 
5.86221 -1.0376e-07 14.1844 
0.751308 -1.0376e-07 12.6456 
8.51541 -1.0376e-07 6.27776 
8.47471 -1.0376e-07 16.9412 
4.67851 -1.0376e-07 2.71139 
8.58951 -1.0376e-07 13.9426 
3.65971 -1.0376e-07 14.4055 
5.67301 -1.0376e-07 10.3543 
0.138408 -1.0376e-07 1.65528 
14.0914 -1.0376e-07 6.36318 
3.19591 -1.0376e-07 23.8682 
18.7907 -1.0376e-07 0.58184 
1.94871 -1.0376e-07 21.978 
1.15561 -1.0376e-07 7.1265 
2.17961 -1.0376e-07 2.20437 
5.10811 -1.0376e-07 14.332 
2.12591 -1.0376e-07 20.6229 
3.17051 -1.0376e-07 3.46881 
13.8026 -1.0376e-07 8.48261 
11.843 -1.0376e-07 2.14913 
1.14071 -1.0376e-07 22.1577 
14.4613 -1.0376e-07 8.1439 
5.20351 -1.0376e-07 9.05654 
6.42221 -1.0376e-07 3.33768 
12.6753 -1.0376e-07 4.46154 
1.22471 -1.0376e-07 4.94935 
9.33001 -1.0376e-07 2.149 
0.352708 -1.0376e-07 1.03201 
2.72061 -1.0376e-07 5.05512 
9.29231 -1.0376e-07 2.58561 
17.9654 -1.0376e-07 2.4148 
15.0079 -1.0376e-07 2.13462 
1.17021 -1.0376e-07 21.8193 
2.07671 -1.0376e-07 17.744 
6.68731 -1.0376e-07 19.0467 
0.59791 -1.0376e-07 11.8984 
3.37701 -1.0376e-07 15.9173 
7.90871 -1.0376e-07 3.04594 
1.68871 -1.0376e-07 16.2888 
0.422708 -1.0376e-07 4.98911 
9.00451 -1.0376e-07 7.84226 
11.994 -1.0376e-07 3.36824 
10.7102 -1.0376e-07 0.644566 
15.1849 -1.0376e-07 4.21628 
3.02991 -1.0376e-07 17.7612 
16.5552 -1.0376e-07 4.03435 
7.64371 -1.0376e-07 5.24929 
10.2178 -1.0376e-07 8.21804 
3.35601 -1.0376e-07 9.50737 
9.53371 -1.0376e-07 5.54501 
17.0403 -1.0376e-07 1.59062 
0.68511 -1.0376e-07 5.29009 
11.808 -1.0376e-07 1.31978 
10.8538 -1.0376e-07 1.23532 
10.8896 -1.0376e-07 1.64483 
9.67671 -1.0376e-07 5.99075 
3.25981 -1.0376e-07 4.82663 
0.810709 -1.0376e-07 28.0984 
1.16191 -1.0376e-07 16.2586 
16.3725 -1.0376e-07 4.81679 
3.65871 -1.0376e-07 1.54455 
1.69761 -1.0376e-07 14.5748 
5.99371 -1.0376e-07 14.6741 
6.42521 -1.0376e-07 19.4937 
3.60361 -1.0376e-07 23.9002 
4.41831 -1.0376e-07 6.28956 
4.20701 -1.0376e-07 11.4272 
0.680608 -1.0376e-07 5.95627 
5.18211 -1.0376e-07 12.278 
13.5987 -1.0376e-07 3.17309 
4.67371 -1.0376e-07 13.1734 
13.3234 -1.0376e-07 2.86236 
13.4056 -1.0376e-07 6.76233 
14.5425 -1.0376e-07 2.2866 
0.91531 -1.0376e-07 18.3809 
3.33411 -1.0376e-07 1.38017 
14.3645 -1.0376e-07 5.09529 
4.36581 -1.0376e-07 3.05043 
5.54511 -1.0376e-07 11.7454 
13.9415 -1.0376e-07 4.30716 
2.97701 -1.0376e-07 8.31019 
14.9119 -1.0376e-07 6.1755 
0.575908 -1.0376e-07 6.60248 
17.1704 -1.0376e-07 1.04069 
0.28701 -1.0376e-07 27.1625 
5.60211 -1.0376e-07 4.80406 
11.2175 -1.0376e-07 11.0354 
8.44791 -1.0376e-07 0.226458 
14.1465 -1.0376e-07 0.593985 
6.47891 -1.0376e-07 18.3432 
6.73751 -1.0376e-07 3.24538 
8.86391 -1.0376e-07 8.88095 
10.0145 -1.0376e-07 11.8318 
3.78601 -1.0376e-07 11.7041 
6.20681 -1.0376e-07 11.5657 
11.4696 -1.0376e-07 7.64849 
9.53781 -1.0376e-07 4.80202 
0.595209 -1.0376e-07 4.84196 
5.98601 -1.0376e-07 12.4992 
8.86181 -1.0376e-07 1.74312 
5.95901 -1.0376e-07 5.62641 
12.2338 -1.0376e-07 0.261419 
2.54141 -1.0376e-07 22.9875 
11.1628 -1.0376e-07 11.4323 
9.05721 -1.0376e-07 3.02645 
5.40411 -1.0376e-07 10.2754 
17.9147 -1.0376e-07 2.40521 
2.00321 -1.0376e-07 25.6574 
2.25241 -1.0376e-07 4.97859 
10.1308 -1.0376e-07 9.56049 
8.42691 -1.0376e-07 3.15321 
3.57981 -1.0376e-07 0.392353 
8.01411 -1.0376e-07 5.26736 
5.39651 -1.0376e-07 4.63417 
8.65781 -1.0376e-07 4.92652 
4.57731 -1.0376e-07 15.2555 
9.64071 -1.0376e-07 13.9034 
7.93211 -1.0376e-07 5.94463 
5.03281 -1.0376e-07 8.46238 
6.53551 -1.0376e-07 16.5818 
11.582 -1.0376e-07 1.18368 
5.46071 -1.0376e-07 6.57353 
3.33951 -1.0376e-07 10.8028 
14.1129 -1.0376e-07 2.16798 
8.91881 -1.0376e-07 12.8768 
16.1382 -1.0376e-07 2.37514 
5.40841 -1.0376e-07 13.662 
5.11531 -1.0376e-07 6.31236 
0.856908 -1.0376e-07 17.842 
1.14741 -1.0376e-07 13.9999 
16.3885 -1.0376e-07 4.893 
10.5691 -1.0376e-07 0.235379 
8.00421 -1.0376e-07 6.79055 
4.41791 -1.0376e-07 21.107 
6.52761 -1.0376e-07 1.86587 
0.73571 -1.0376e-07 13.705 
5.26031 -1.0376e-07 17.1426 
2.76241 -1.0376e-07 13.5694 
14.9077 -1.0376e-07 3.19494 
3.78011 -1.0376e-07 21.1086 
8.03041 -1.0376e-07 7.45649 
10.444 -1.0376e-07 11.6035 
2.07381 -1.0376e-07 24.4748 
7.88111 -1.0376e-07 14.6455 
3.71531 -1.0376e-07 6.93643 
10.954 -1.0376e-07 12.5821 
0.599809 -1.0376e-07 8.27045 
1.67111 -1.0376e-07 3.18296 
3.55071 -1.0376e-07 8.65185 
5.82701 -1.0376e-07 16.6669 
9.41111 -1.0376e-07 11.9579 
1.07811 -1.0376e-07 1.31462 
6.64451 -1.0376e-07 19.3253 
2.45221 -1.0376e-07 3.83961 
2.59961 -1.0376e-07 14.294 
6.03391 -1.0376e-07 9.65123 
13.4298 -1.0376e-07 0.861567 
1.93151 -1.0376e-07 5.08081 
14.5038 -1.0376e-07 2.49149 
2.92701 -1.0376e-07 2.80776 
5.75071 -1.0376e-07 12.4394 
16.4639 -1.0376e-07 4.2322 
8.77441 -1.0376e-07 12.6653 
16.3044 -1.0376e-07 1.55716 
7.91631 -1.0376e-07 17.7965 
8.31691 -1.0376e-07 17.5267 
4.12351 -1.0376e-07 14.0187 
1.98021 -1.0376e-07 7.46438 
6.67951 -1.0376e-07 8.42525 
0.197309 -1.0376e-07 13.2153 
10.6659 -1.0376e-07 10.7 
1.56871 -1.0376e-07 0.333137 
10.1789 -1.0376e-07 2.05464 
4.04651 -1.0376e-07 10.7144 
6.19291 -1.0376e-07 1.93421 
3.35521 -1.0376e-07 22.3925 
7.83861 -1.0376e-07 2.03885 
5.74191 -1.0376e-07 14.2259 
17.0421 -1.0376e-07 4.12071 
1.16461 -1.0376e-07 4.90436 
3.59431 -1.0376e-07 17.849 
7.32461 -1.0376e-07 16.1412 
0.565208 -1.0376e-07 11.2446 
13.5683 -1.0376e-07 2.62198 
0.0705086 -1.0376e-07 6.92276 
14.9855 -1.0376e-07 3.11899 
0.205009 -1.0376e-07 1.66845 
9.93811 -1.0376e-07 6.44765 
6.66571 -1.0376e-07 14.7623 
5.23621 -1.0376e-07 8.52956 
6.85081 -1.0376e-07 1.56741 
4.32911 -1.0376e-07 9.69829 
5.17341 -1.0376e-07 4.74612 
2.38641 -1.0376e-07 17.5777 
14.2933 -1.0376e-07 7.43311 
2.44821 -1.0376e-07 25.6801 
